ply
format ascii 1.0
comment PCL generated
element vertex 1041
property float x
property float y
property float z
property uchar red
property uchar green
property uchar blue
property uchar alpha
element camera 0
property float view_px
property float view_py
property float view_pz
property float x_axisx
property float x_axisy
property float x_axisz
property float y_axisx
property float y_axisy
property float y_axisz
property float z_axisx
property float z_axisy
property float z_axisz
property float focal
property float scalex
property float scaley
property float centerx
property float centery
property int viewportx
property int viewporty
property float k1
property float k2
end_header
0.30671811 -0.050939046 1.138 166 86 40 255
0.30888572 -0.050939046 1.138 166 86 40 255
0.31105334 -0.050939046 1.138 166 86 40 255
0.31322095 -0.050939046 1.138 166 86 40 255
0.31538856 -0.050939046 1.138 166 86 40 255
0.24732 -0.048600003 1.1340001 166 86 40 255
0.24948001 -0.048600003 1.1340001 166 86 40 255
0.25164002 -0.048600003 1.1340001 166 86 40 255
0.2538 -0.048600003 1.1340001 166 86 40 255
0.25596002 -0.048600003 1.1340001 166 86 40 255
0.25812 -0.048600003 1.1340001 166 86 40 255
0.26028001 -0.048600003 1.1340001 166 86 40 255
0.26244 -0.048600003 1.1340001 166 86 40 255
0.26460001 -0.048600003 1.1340001 166 86 40 255
0.26676002 -0.048600003 1.1340001 166 86 40 255
0.26892003 -0.048600003 1.1340001 166 86 40 255
0.27107999 -0.048600003 1.1340001 166 86 40 255
0.27420381 -0.048771426 1.138 166 86 40 255
0.27637142 -0.048771426 1.138 166 86 40 255
0.27853906 -0.048771426 1.138 166 86 40 255
0.28070667 -0.048771426 1.138 166 86 40 255
0.28287429 -0.048771426 1.138 166 86 40 255
0.2850419 -0.048771426 1.138 166 86 40 255
0.28620002 -0.048600003 1.1340001 166 86 40 255
0.28836 -0.048600003 1.1340001 166 86 40 255
0.29052001 -0.048600003 1.1340001 166 86 40 255
0.29268003 -0.048600003 1.1340001 166 86 40 255
0.29484004 -0.048600003 1.1340001 166 86 40 255
0.29699999 -0.048600003 1.1340001 166 86 40 255
0.30021524 -0.048771426 1.138 166 86 40 255
0.30238286 -0.048771426 1.138 166 86 40 255
0.3045505 -0.048771426 1.138 166 86 40 255
0.30671811 -0.048771426 1.138 166 86 40 255
0.30888572 -0.048771426 1.138 166 86 40 255
0.31105334 -0.048771426 1.138 166 86 40 255
0.31322095 -0.048771426 1.138 166 86 40 255
0.31538856 -0.048771426 1.138 166 86 40 255
0.24516 -0.046440002 1.1340001 166 86 40 255
0.24732 -0.046440002 1.1340001 166 86 40 255
0.24948001 -0.046440002 1.1340001 166 86 40 255
0.25164002 -0.046440002 1.1340001 166 86 40 255
0.2538 -0.046440002 1.1340001 166 86 40 255
0.25596002 -0.046440002 1.1340001 166 86 40 255
0.25812 -0.046440002 1.1340001 166 86 40 255
0.26028001 -0.046440002 1.1340001 166 86 40 255
0.26244 -0.046440002 1.1340001 166 86 40 255
0.26460001 -0.046440002 1.1340001 166 86 40 255
0.26676002 -0.046440002 1.1340001 166 86 40 255
0.26892003 -0.046440002 1.1340001 166 86 40 255
0.27107999 -0.046440002 1.1340001 166 86 40 255
0.27420381 -0.04660381 1.138 166 86 40 255
0.27637142 -0.04660381 1.138 166 86 40 255
0.27853906 -0.04660381 1.138 166 86 40 255
0.28070667 -0.04660381 1.138 166 86 40 255
0.28287429 -0.04660381 1.138 166 86 40 255
0.2850419 -0.04660381 1.138 166 86 40 255
0.28620002 -0.046440002 1.1340001 166 86 40 255
0.28836 -0.046440002 1.1340001 166 86 40 255
0.29052001 -0.046440002 1.1340001 166 86 40 255
0.29268003 -0.046440002 1.1340001 166 86 40 255
0.29484004 -0.046440002 1.1340001 166 86 40 255
0.29699999 -0.046440002 1.1340001 166 86 40 255
0.30021524 -0.04660381 1.138 166 86 40 255
0.30238286 -0.04660381 1.138 166 86 40 255
0.3045505 -0.04660381 1.138 166 86 40 255
0.30671811 -0.04660381 1.138 166 86 40 255
0.30888572 -0.04660381 1.138 166 86 40 255
0.31105334 -0.04660381 1.138 166 86 40 255
0.31322095 -0.04660381 1.138 166 86 40 255
0.31538856 -0.04660381 1.138 166 86 40 255
0.31755617 -0.04660381 1.138 166 86 40 255
0.24516 -0.044280004 1.1340001 166 86 40 255
0.24732 -0.044280004 1.1340001 166 86 40 255
0.24859999 -0.044123806 1.13 166 86 40 255
0.25075239 -0.044123806 1.13 166 86 40 255
0.25290474 -0.044123806 1.13 166 86 40 255
0.25596002 -0.044280004 1.1340001 166 86 40 255
0.25812 -0.044280004 1.1340001 166 86 40 255
0.26028001 -0.044280004 1.1340001 166 86 40 255
0.26244 -0.044280004 1.1340001 166 86 40 255
0.26460001 -0.044280004 1.1340001 166 86 40 255
0.26676002 -0.044280004 1.1340001 166 86 40 255
0.26892003 -0.044280004 1.1340001 166 86 40 255
0.27107999 -0.044280004 1.1340001 166 86 40 255
0.27324 -0.044280004 1.1340001 166 86 40 255
0.27637142 -0.04443619 1.138 166 86 40 255
0.27853906 -0.04443619 1.138 166 86 40 255
0.28070667 -0.04443619 1.138 166 86 40 255
0.28287429 -0.04443619 1.138 166 86 40 255
0.2850419 -0.04443619 1.138 166 86 40 255
0.28620002 -0.044280004 1.1340001 166 86 40 255
0.28836 -0.044280004 1.1340001 166 86 40 255
0.29052001 -0.044280004 1.1340001 166 86 40 255
0.29268003 -0.044280004 1.1340001 166 86 40 255
0.29484004 -0.044280004 1.1340001 166 86 40 255
0.29699999 -0.044280004 1.1340001 166 86 40 255
0.29916 -0.044280004 1.1340001 166 86 40 255
0.30132002 -0.044280004 1.1340001 166 86 40 255
0.30348003 -0.044280004 1.1340001 166 86 40 255
0.30564001 -0.044280004 1.1340001 166 86 40 255
0.30780002 -0.044280004 1.1340001 166 86 40 255
0.31105334 -0.04443619 1.138 166 86 40 255
0.31322095 -0.04443619 1.138 166 86 40 255
0.31538856 -0.04443619 1.138 166 86 40 255
0.31755617 -0.04443619 1.138 166 86 40 255
0.243 -0.042120002 1.1340001 166 86 40 255
0.24516 -0.042120002 1.1340001 166 86 40 255
0.24732 -0.042120002 1.1340001 166 86 40 255
0.24859999 -0.041971426 1.13 166 86 40 255
0.25075239 -0.041971426 1.13 166 86 40 255
0.25290474 -0.041971426 1.13 166 86 40 255
0.25596002 -0.042120002 1.1340001 166 86 40 255
0.25812 -0.042120002 1.1340001 166 86 40 255
0.26028001 -0.042120002 1.1340001 166 86 40 255
0.26244 -0.042120002 1.1340001 166 86 40 255
0.26460001 -0.042120002 1.1340001 166 86 40 255
0.26676002 -0.042120002 1.1340001 166 86 40 255
0.26892003 -0.042120002 1.1340001 166 86 40 255
0.27107999 -0.042120002 1.1340001 166 86 40 255
0.27324 -0.042120002 1.1340001 166 86 40 255
0.27637142 -0.042268571 1.138 166 86 40 255
0.27853906 -0.042268571 1.138 166 86 40 255
0.27972001 -0.042120002 1.1340001 166 86 40 255
0.28188002 -0.042120002 1.1340001 166 86 40 255
0.28404 -0.042120002 1.1340001 166 86 40 255
0.28620002 -0.042120002 1.1340001 166 86 40 255
0.28836 -0.042120002 1.1340001 166 86 40 255
0.29052001 -0.042120002 1.1340001 166 86 40 255
0.29268003 -0.042120002 1.1340001 166 86 40 255
0.29484004 -0.042120002 1.1340001 166 86 40 255
0.29699999 -0.042120002 1.1340001 166 86 40 255
0.29916 -0.042120002 1.1340001 166 86 40 255
0.30132002 -0.042120002 1.1340001 166 86 40 255
0.30348003 -0.042120002 1.1340001 166 86 40 255
0.30564001 -0.042120002 1.1340001 166 86 40 255
0.30780002 -0.042120002 1.1340001 166 86 40 255
0.30996001 -0.042120002 1.1340001 166 86 40 255
0.31212002 -0.042120002 1.1340001 166 86 40 255
0.31428 -0.042120002 1.1340001 166 86 40 255
0.31755617 -0.042268571 1.138 166 86 40 255
0.31972378 -0.042268571 1.138 166 86 40 255
0.24232668 -0.040206671 1.141 166 86 40 255
0.24385713 -0.040100951 1.138 166 86 40 255
0.24602474 -0.040100951 1.138 166 86 40 255
0.24732 -0.039960004 1.1340001 166 86 40 255
0.24948001 -0.039960004 1.1340001 166 86 40 255
0.25164002 -0.039960004 1.1340001 166 86 40 255
0.2538 -0.039960004 1.1340001 166 86 40 255
0.25596002 -0.039960004 1.1340001 166 86 40 255
0.25812 -0.039960004 1.1340001 166 86 40 255
0.26028001 -0.039960004 1.1340001 166 86 40 255
0.26244 -0.039960004 1.1340001 166 86 40 255
0.26460001 -0.039960004 1.1340001 166 86 40 255
0.26676002 -0.039960004 1.1340001 166 86 40 255
0.26892003 -0.039960004 1.1340001 166 86 40 255
0.27107999 -0.039960004 1.1340001 166 86 40 255
0.27324 -0.039960004 1.1340001 166 86 40 255
0.27540001 -0.039960004 1.1340001 166 86 40 255
0.27756003 -0.039960004 1.1340001 166 86 40 255
0.27972001 -0.039960004 1.1340001 166 86 40 255
0.28188002 -0.039960004 1.1340001 166 86 40 255
0.28404 -0.039960004 1.1340001 166 86 40 255
0.28620002 -0.039960004 1.1340001 166 86 40 255
0.28836 -0.039960004 1.1340001 166 86 40 255
0.29052001 -0.039960004 1.1340001 166 86 40 255
0.29268003 -0.039960004 1.1340001 166 86 40 255
0.29484004 -0.039960004 1.1340001 166 86 40 255
0.29699999 -0.039960004 1.1340001 166 86 40 255
0.29916 -0.039960004 1.1340001 166 86 40 255
0.30132002 -0.039960004 1.1340001 166 86 40 255
0.30348003 -0.039960004 1.1340001 166 86 40 255
0.30564001 -0.039960004 1.1340001 166 86 40 255
0.30780002 -0.039960004 1.1340001 166 86 40 255
0.30996001 -0.039960004 1.1340001 166 86 40 255
0.31212002 -0.039960004 1.1340001 166 86 40 255
0.31428 -0.039960004 1.1340001 166 86 40 255
0.31755617 -0.040100951 1.138 166 86 40 255
0.31972378 -0.040100951 1.138 166 86 40 255
0.24099526 -0.038166672 1.1450001 166 86 40 255
0.24232668 -0.038033333 1.141 166 86 40 255
0.2445 -0.038033333 1.141 166 86 40 255
0.24602474 -0.037933335 1.138 166 86 40 255
0.24732 -0.037800003 1.1340001 166 86 40 255
0.24948001 -0.037800003 1.1340001 166 86 40 255
0.25164002 -0.037800003 1.1340001 166 86 40 255
0.2538 -0.037800003 1.1340001 166 86 40 255
0.25596002 -0.037800003 1.1340001 166 86 40 255
0.25812 -0.037800003 1.1340001 166 86 40 255
0.26028001 -0.037800003 1.1340001 166 86 40 255
0.26244 -0.037800003 1.1340001 166 86 40 255
0.26460001 -0.037800003 1.1340001 166 86 40 255
0.26676002 -0.037800003 1.1340001 166 86 40 255
0.26892003 -0.037800003 1.1340001 166 86 40 255
0.27107999 -0.037800003 1.1340001 166 86 40 255
0.27324 -0.037800003 1.1340001 166 86 40 255
0.27540001 -0.037800003 1.1340001 166 86 40 255
0.27756003 -0.037800003 1.1340001 166 86 40 255
0.27972001 -0.037800003 1.1340001 166 86 40 255
0.28188002 -0.037800003 1.1340001 166 86 40 255
0.28404 -0.037800003 1.1340001 166 86 40 255
0.28620002 -0.037800003 1.1340001 166 86 40 255
0.28836 -0.037800003 1.1340001 166 86 40 255
0.29052001 -0.037800003 1.1340001 166 86 40 255
0.29268003 -0.037800003 1.1340001 166 86 40 255
0.29484004 -0.037800003 1.1340001 166 86 40 255
0.29699999 -0.037800003 1.1340001 166 86 40 255
0.29916 -0.037800003 1.1340001 166 86 40 255
0.30132002 -0.037800003 1.1340001 166 86 40 255
0.30348003 -0.037800003 1.1340001 166 86 40 255
0.30564001 -0.037800003 1.1340001 166 86 40 255
0.30780002 -0.037800003 1.1340001 166 86 40 255
0.30996001 -0.037800003 1.1340001 166 86 40 255
0.31212002 -0.037800003 1.1340001 166 86 40 255
0.31538856 -0.037933335 1.138 166 86 40 255
0.31755617 -0.037933335 1.138 166 86 40 255
0.31972378 -0.037933335 1.138 166 86 40 255
0.23881431 -0.035985716 1.1450001 166 86 40 255
0.24099526 -0.035985716 1.1450001 166 86 40 255
0.24232668 -0.035859998 1.141 166 86 40 255
0.2445 -0.035859998 1.141 166 86 40 255
0.24602474 -0.035765715 1.138 166 86 40 255
0.24819237 -0.035765715 1.138 166 86 40 255
0.24948001 -0.035640001 1.1340001 166 86 40 255
0.25164002 -0.035640001 1.1340001 166 86 40 255
0.2538 -0.035640001 1.1340001 166 86 40 255
0.25596002 -0.035640001 1.1340001 166 86 40 255
0.25812 -0.035640001 1.1340001 166 86 40 255
0.26028001 -0.035640001 1.1340001 166 86 40 255
0.26244 -0.035640001 1.1340001 166 86 40 255
0.26460001 -0.035640001 1.1340001 166 86 40 255
0.26676002 -0.035640001 1.1340001 166 86 40 255
0.26892003 -0.035640001 1.1340001 166 86 40 255
0.27107999 -0.035640001 1.1340001 166 86 40 255
0.27324 -0.035640001 1.1340001 166 86 40 255
0.27540001 -0.035640001 1.1340001 166 86 40 255
0.27756003 -0.035640001 1.1340001 166 86 40 255
0.27972001 -0.035640001 1.1340001 166 86 40 255
0.28188002 -0.035640001 1.1340001 166 86 40 255
0.28404 -0.035640001 1.1340001 166 86 40 255
0.28620002 -0.035640001 1.1340001 166 86 40 255
0.28836 -0.035640001 1.1340001 166 86 40 255
0.29052001 -0.035640001 1.1340001 166 86 40 255
0.29268003 -0.035640001 1.1340001 166 86 40 255
0.29484004 -0.035640001 1.1340001 166 86 40 255
0.29699999 -0.035640001 1.1340001 166 86 40 255
0.29916 -0.035640001 1.1340001 166 86 40 255
0.30132002 -0.035640001 1.1340001 166 86 40 255
0.30348003 -0.035640001 1.1340001 166 86 40 255
0.30564001 -0.035640001 1.1340001 166 86 40 255
0.30780002 -0.035640001 1.1340001 166 86 40 255
0.31105334 -0.035765715 1.138 166 86 40 255
0.31322095 -0.035765715 1.138 166 86 40 255
0.31538856 -0.035765715 1.138 166 86 40 255
0.31755617 -0.035765715 1.138 166 86 40 255
0.31972378 -0.035765715 1.138 166 86 40 255
0.32274002 -0.035859998 1.141 166 86 40 255
0.23881431 -0.033804763 1.1450001 166 86 40 255
0.24099526 -0.033804763 1.1450001 166 86 40 255
0.24232668 -0.033686668 1.141 166 86 40 255
0.2445 -0.033686668 1.141 166 86 40 255
0.24667335 -0.033686668 1.141 166 86 40 255
0.24819237 -0.033598095 1.138 166 86 40 255
0.24948001 -0.033480003 1.1340001 166 86 40 255
0.25164002 -0.033480003 1.1340001 166 86 40 255
0.2538 -0.033480003 1.1340001 166 86 40 255
0.25596002 -0.033480003 1.1340001 166 86 40 255
0.25812 -0.033480003 1.1340001 166 86 40 255
0.26028001 -0.033480003 1.1340001 166 86 40 255
0.26244 -0.033480003 1.1340001 166 86 40 255
0.26460001 -0.033480003 1.1340001 166 86 40 255
0.26676002 -0.033480003 1.1340001 166 86 40 255
0.26892003 -0.033480003 1.1340001 166 86 40 255
0.27107999 -0.033480003 1.1340001 166 86 40 255
0.27324 -0.033480003 1.1340001 166 86 40 255
0.27540001 -0.033480003 1.1340001 166 86 40 255
0.27756003 -0.033480003 1.1340001 166 86 40 255
0.27972001 -0.033480003 1.1340001 166 86 40 255
0.28188002 -0.033480003 1.1340001 166 86 40 255
0.28404 -0.033480003 1.1340001 166 86 40 255
0.28620002 -0.033480003 1.1340001 166 86 40 255
0.28836 -0.033480003 1.1340001 166 86 40 255
0.29052001 -0.033480003 1.1340001 166 86 40 255
0.29268003 -0.033480003 1.1340001 166 86 40 255
0.29484004 -0.033480003 1.1340001 166 86 40 255
0.29699999 -0.033480003 1.1340001 166 86 40 255
0.29916 -0.033480003 1.1340001 166 86 40 255
0.30132002 -0.033480003 1.1340001 166 86 40 255
0.30348003 -0.033480003 1.1340001 166 86 40 255
0.30564001 -0.033480003 1.1340001 166 86 40 255
0.30780002 -0.033480003 1.1340001 166 86 40 255
0.30996001 -0.033480003 1.1340001 166 86 40 255
0.31212002 -0.033480003 1.1340001 166 86 40 255
0.31538856 -0.033598095 1.138 166 86 40 255
0.31755617 -0.033598095 1.138 166 86 40 255
0.31972378 -0.033598095 1.138 166 86 40 255
0.32189143 -0.033598095 1.138 166 86 40 255
0.23964858 -0.031734288 1.149 166 86 40 255
0.24183716 -0.031734288 1.149 166 86 40 255
0.24317621 -0.031623811 1.1450001 166 86 40 255
0.24535717 -0.031623811 1.1450001 166 86 40 255
0.24667335 -0.031513333 1.141 166 86 40 255
0.24819237 -0.031430475 1.138 166 86 40 255
0.24948001 -0.031320002 1.1340001 166 86 40 255
0.25164002 -0.031320002 1.1340001 166 86 40 255
0.2538 -0.031320002 1.1340001 166 86 40 255
0.25596002 -0.031320002 1.1340001 166 86 40 255
0.25812 -0.031320002 1.1340001 166 86 40 255
0.26028001 -0.031320002 1.1340001 166 86 40 255
0.26244 -0.031320002 1.1340001 166 86 40 255
0.26460001 -0.031320002 1.1340001 166 86 40 255
0.26676002 -0.031320002 1.1340001 166 86 40 255
0.26892003 -0.031320002 1.1340001 166 86 40 255
0.27107999 -0.031320002 1.1340001 166 86 40 255
0.27324 -0.031320002 1.1340001 166 86 40 255
0.27540001 -0.031320002 1.1340001 166 86 40 255
0.27756003 -0.031320002 1.1340001 166 86 40 255
0.27972001 -0.031320002 1.1340001 166 86 40 255
0.28188002 -0.031320002 1.1340001 166 86 40 255
0.28404 -0.031320002 1.1340001 166 86 40 255
0.28620002 -0.031320002 1.1340001 166 86 40 255
0.28836 -0.031320002 1.1340001 166 86 40 255
0.29052001 -0.031320002 1.1340001 166 86 40 255
0.29268003 -0.031320002 1.1340001 166 86 40 255
0.29484004 -0.031320002 1.1340001 166 86 40 255
0.29699999 -0.031320002 1.1340001 166 86 40 255
0.29916 -0.031320002 1.1340001 166 86 40 255
0.30132002 -0.031320002 1.1340001 166 86 40 255
0.30348003 -0.031320002 1.1340001 166 86 40 255
0.30564001 -0.031320002 1.1340001 166 86 40 255
0.30780002 -0.031320002 1.1340001 166 86 40 255
0.30996001 -0.031320002 1.1340001 166 86 40 255
0.31212002 -0.031320002 1.1340001 166 86 40 255
0.31538856 -0.031430475 1.138 166 86 40 255
0.31755617 -0.031430475 1.138 166 86 40 255
0.31972378 -0.031430475 1.138 166 86 40 255
0.32189143 -0.031430475 1.138 166 86 40 255
0.23828667 -0.029648572 1.153 166 86 40 255
0.23964858 -0.029545715 1.149 166 86 40 255
0.24183716 -0.029545715 1.149 166 86 40 255
0.24317621 -0.02944286 1.1450001 166 86 40 255
0.24535717 -0.02944286 1.1450001 166 86 40 255
0.24667335 -0.029340001 1.141 166 86 40 255
0.24819237 -0.029262858 1.138 166 86 40 255
0.24948001 -0.029160002 1.1340001 166 86 40 255
0.25164002 -0.029160002 1.1340001 166 86 40 255
0.2538 -0.029160002 1.1340001 166 86 40 255
0.25596002 -0.029160002 1.1340001 166 86 40 255
0.25812 -0.029160002 1.1340001 166 86 40 255
0.26028001 -0.029160002 1.1340001 166 86 40 255
0.26244 -0.029160002 1.1340001 166 86 40 255
0.26460001 -0.029160002 1.1340001 166 86 40 255
0.26676002 -0.029160002 1.1340001 166 86 40 255
0.26892003 -0.029160002 1.1340001 166 86 40 255
0.27107999 -0.029160002 1.1340001 166 86 40 255
0.27324 -0.029160002 1.1340001 166 86 40 255
0.27540001 -0.029160002 1.1340001 166 86 40 255
0.27756003 -0.029160002 1.1340001 166 86 40 255
0.27972001 -0.029160002 1.1340001 166 86 40 255
0.28188002 -0.029160002 1.1340001 166 86 40 255
0.28303808 -0.029057143 1.13 166 86 40 255
0.28519049 -0.029057143 1.13 166 86 40 255
0.28836 -0.029160002 1.1340001 166 86 40 255
0.29052001 -0.029160002 1.1340001 166 86 40 255
0.29268003 -0.029160002 1.1340001 166 86 40 255
0.29484004 -0.029160002 1.1340001 166 86 40 255
0.29699999 -0.029160002 1.1340001 166 86 40 255
0.29916 -0.029160002 1.1340001 166 86 40 255
0.30132002 -0.029160002 1.1340001 166 86 40 255
0.30348003 -0.029160002 1.1340001 166 86 40 255
0.30564001 -0.029160002 1.1340001 166 86 40 255
0.30780002 -0.029160002 1.1340001 166 86 40 255
0.30996001 -0.029160002 1.1340001 166 86 40 255
0.31212002 -0.029160002 1.1340001 166 86 40 255
0.31428 -0.029160002 1.1340001 166 86 40 255
0.31644002 -0.029160002 1.1340001 166 86 40 255
0.31972378 -0.029262858 1.138 166 86 40 255
0.23828667 -0.027452381 1.153 166 86 40 255
0.24048285 -0.027452381 1.153 166 86 40 255
0.24183716 -0.027357142 1.149 166 86 40 255
0.24317621 -0.027261905 1.1450001 166 86 40 255
0.24535717 -0.027261905 1.1450001 166 86 40 255
0.24667335 -0.027166668 1.141 166 86 40 255
0.24819237 -0.027095238 1.138 166 86 40 255
0.24948001 -0.027000003 1.1340001 166 86 40 255
0.25164002 -0.027000003 1.1340001 166 86 40 255
0.2538 -0.027000003 1.1340001 166 86 40 255
0.25505713 -0.026904762 1.13 166 86 40 255
0.25720954 -0.026904762 1.13 166 86 40 255
0.25936189 -0.026904762 1.13 166 86 40 255
0.26244 -0.027000003 1.1340001 166 86 40 255
0.26460001 -0.027000003 1.1340001 166 86 40 255
0.26676002 -0.027000003 1.1340001 166 86 40 255
0.26892003 -0.027000003 1.1340001 166 86 40 255
0.27107999 -0.027000003 1.1340001 166 86 40 255
0.27324 -0.027000003 1.1340001 166 86 40 255
0.27540001 -0.027000003 1.1340001 166 86 40 255
0.27756003 -0.027000003 1.1340001 166 86 40 255
0.27972001 -0.027000003 1.1340001 166 86 40 255
0.28188002 -0.027000003 1.1340001 166 86 40 255
0.28303808 -0.026904762 1.13 166 86 40 255
0.28519049 -0.026904762 1.13 166 86 40 255
0.28836 -0.027000003 1.1340001 166 86 40 255
0.29052001 -0.027000003 1.1340001 166 86 40 255
0.29268003 -0.027000003 1.1340001 166 86 40 255
0.29484004 -0.027000003 1.1340001 166 86 40 255
0.29699999 -0.027000003 1.1340001 166 86 40 255
0.29916 -0.027000003 1.1340001 166 86 40 255
0.30132002 -0.027000003 1.1340001 166 86 40 255
0.30348003 -0.027000003 1.1340001 166 86 40 255
0.30564001 -0.027000003 1.1340001 166 86 40 255
0.30780002 -0.027000003 1.1340001 166 86 40 255
0.30996001 -0.027000003 1.1340001 166 86 40 255
0.31212002 -0.027000003 1.1340001 166 86 40 255
0.31428 -0.027000003 1.1340001 166 86 40 255
0.31644002 -0.027000003 1.1340001 166 86 40 255
0.31972378 -0.027095238 1.138 166 86 40 255
0.24100477 -0.025781905 1.177 166 86 40 255
0.23828667 -0.025256189 1.153 166 86 40 255
0.24048285 -0.025256189 1.153 166 86 40 255
0.24183716 -0.025168573 1.149 166 86 40 255
0.24317621 -0.025080955 1.1450001 166 86 40 255
0.2445 -0.024993334 1.141 166 86 40 255
0.24667335 -0.024993334 1.141 166 86 40 255
0.24732 -0.024840001 1.1340001 166 86 40 255
0.24948001 -0.024840001 1.1340001 166 86 40 255
0.25164002 -0.024840001 1.1340001 166 86 40 255
0.25290474 -0.02475238 1.13 166 86 40 255
0.25505713 -0.02475238 1.13 166 86 40 255
0.25720954 -0.02475238 1.13 166 86 40 255
0.25936189 -0.02475238 1.13 166 86 40 255
0.26151428 -0.02475238 1.13 166 86 40 255
0.26460001 -0.024840001 1.1340001 166 86 40 255
0.26676002 -0.024840001 1.1340001 166 86 40 255
0.26892003 -0.024840001 1.1340001 166 86 40 255
0.27107999 -0.024840001 1.1340001 166 86 40 255
0.27324 -0.024840001 1.1340001 166 86 40 255
0.27540001 -0.024840001 1.1340001 166 86 40 255
0.27756003 -0.024840001 1.1340001 166 86 40 255
0.27972001 -0.024840001 1.1340001 166 86 40 255
0.28188002 -0.024840001 1.1340001 166 86 40 255
0.28404 -0.024840001 1.1340001 166 86 40 255
0.28620002 -0.024840001 1.1340001 166 86 40 255
0.28836 -0.024840001 1.1340001 166 86 40 255
0.29052001 -0.024840001 1.1340001 166 86 40 255
0.29268003 -0.024840001 1.1340001 166 86 40 255
0.29484004 -0.024840001 1.1340001 166 86 40 255
0.29595238 -0.02475238 1.13 166 86 40 255
0.29810476 -0.02475238 1.13 166 86 40 255
0.30132002 -0.024840001 1.1340001 166 86 40 255
0.30348003 -0.024840001 1.1340001 166 86 40 255
0.30564001 -0.024840001 1.1340001 166 86 40 255
0.30780002 -0.024840001 1.1340001 166 86 40 255
0.30996001 -0.024840001 1.1340001 166 86 40 255
0.31212002 -0.024840001 1.1340001 166 86 40 255
0.31428 -0.024840001 1.1340001 166 86 40 255
0.31755617 -0.024927618 1.138 166 86 40 255
0.31972378 -0.024927618 1.138 166 86 40 255
0.24100477 -0.023540001 1.177 166 86 40 255
0.24242002 -0.023460001 1.1730001 166 86 40 255
0.24465431 -0.023460001 1.1730001 166 86 40 255
0.24183716 -0.022980001 1.149 166 86 40 255
0.24317621 -0.022900002 1.1450001 166 86 40 255
0.2445 -0.02282 1.141 166 86 40 255
0.24602474 -0.02276 1.138 166 86 40 255
0.24732 -0.022680001 1.1340001 166 86 40 255
0.24948001 -0.022680001 1.1340001 166 86 40 255
0.25075239 -0.022599999 1.13 166 86 40 255
0.25290474 -0.022599999 1.13 166 86 40 255
0.25505713 -0.022599999 1.13 166 86 40 255
0.25720954 -0.022599999 1.13 166 86 40 255
0.25936189 -0.022599999 1.13 166 86 40 255
0.26151428 -0.022599999 1.13 166 86 40 255
0.26460001 -0.022680001 1.1340001 166 86 40 255
0.26676002 -0.022680001 1.1340001 166 86 40 255
0.26892003 -0.022680001 1.1340001 166 86 40 255
0.27107999 -0.022680001 1.1340001 166 86 40 255
0.27324 -0.022680001 1.1340001 166 86 40 255
0.27540001 -0.022680001 1.1340001 166 86 40 255
0.27658096 -0.022599999 1.13 166 86 40 255
0.27873334 -0.022599999 1.13 166 86 40 255
0.2808857 -0.022599999 1.13 166 86 40 255
0.28303808 -0.022599999 1.13 166 86 40 255
0.28519049 -0.022599999 1.13 166 86 40 255
0.28734285 -0.022599999 1.13 166 86 40 255
0.28949523 -0.022599999 1.13 166 86 40 255
0.29268003 -0.022680001 1.1340001 166 86 40 255
0.29484004 -0.022680001 1.1340001 166 86 40 255
0.29595238 -0.022599999 1.13 166 86 40 255
0.29810476 -0.022599999 1.13 166 86 40 255
0.30025712 -0.022599999 1.13 166 86 40 255
0.30348003 -0.022680001 1.1340001 166 86 40 255
0.30564001 -0.022680001 1.1340001 166 86 40 255
0.30780002 -0.022680001 1.1340001 166 86 40 255
0.30996001 -0.022680001 1.1340001 166 86 40 255
0.31212002 -0.022680001 1.1340001 166 86 40 255
0.31538856 -0.02276 1.138 166 86 40 255
0.31755617 -0.02276 1.138 166 86 40 255
0.31972378 -0.02276 1.138 166 86 40 255
0.23812859 -0.021442859 1.1850001 166 86 40 255
0.23957431 -0.021370478 1.1810001 166 86 40 255
0.24100477 -0.021298096 1.177 166 86 40 255
0.24242002 -0.021225717 1.1730001 166 86 40 255
0.24382001 -0.021153333 1.169 166 86 40 255
0.24267904 -0.020863809 1.153 166 86 40 255
0.24317621 -0.020719048 1.1450001 166 86 40 255
0.2445 -0.020646667 1.141 166 86 40 255
0.24602474 -0.02059238 1.138 166 86 40 255
0.24732 -0.020520002 1.1340001 166 86 40 255
0.24948001 -0.020520002 1.1340001 166 86 40 255
0.25075239 -0.020447617 1.13 166 86 40 255
0.25290474 -0.020447617 1.13 166 86 40 255
0.25505713 -0.020447617 1.13 166 86 40 255
0.25720954 -0.020447617 1.13 166 86 40 255
0.25936189 -0.020447617 1.13 166 86 40 255
0.26151428 -0.020447617 1.13 166 86 40 255
0.26460001 -0.020520002 1.1340001 166 86 40 255
0.26676002 -0.020520002 1.1340001 166 86 40 255
0.26892003 -0.020520002 1.1340001 166 86 40 255
0.27107999 -0.020520002 1.1340001 166 86 40 255
0.27324 -0.020520002 1.1340001 166 86 40 255
0.27442858 -0.020447617 1.13 166 86 40 255
0.27658096 -0.020447617 1.13 166 86 40 255
0.27873334 -0.020447617 1.13 166 86 40 255
0.2808857 -0.020447617 1.13 166 86 40 255
0.28303808 -0.020447617 1.13 166 86 40 255
0.28519049 -0.020447617 1.13 166 86 40 255
0.28734285 -0.020447617 1.13 166 86 40 255
0.28949523 -0.020447617 1.13 166 86 40 255
0.29164761 -0.020447617 1.13 166 86 40 255
0.29484004 -0.020520002 1.1340001 166 86 40 255
0.29595238 -0.020447617 1.13 166 86 40 255
0.29810476 -0.020447617 1.13 166 86 40 255
0.30025712 -0.020447617 1.13 166 86 40 255
0.30348003 -0.020520002 1.1340001 166 86 40 255
0.30564001 -0.020520002 1.1340001 166 86 40 255
0.30780002 -0.020520002 1.1340001 166 86 40 255
0.30996001 -0.020520002 1.1340001 166 86 40 255
0.31212002 -0.020520002 1.1340001 166 86 40 255
0.31428 -0.020520002 1.1340001 166 86 40 255
0.31644002 -0.020520002 1.1340001 166 86 40 255
0.31972378 -0.02059238 1.138 166 86 40 255
0.23812859 -0.019185714 1.1850001 166 86 40 255
0.23957431 -0.019120954 1.1810001 166 86 40 255
0.24182382 -0.019120954 1.1810001 166 86 40 255
0.24324667 -0.019056192 1.177 166 86 40 255
0.24382001 -0.018926667 1.169 166 86 40 255
0.24267904 -0.018667618 1.153 166 86 40 255
0.24402574 -0.018602857 1.149 166 86 40 255
0.24535717 -0.018538097 1.1450001 166 86 40 255
0.24667335 -0.018473335 1.141 166 86 40 255
0.24819237 -0.018424762 1.138 166 86 40 255
0.24948001 -0.018360002 1.1340001 166 86 40 255
0.25075239 -0.018295238 1.13 166 86 40 255
0.25290474 -0.018295238 1.13 166 86 40 255
0.25415429 -0.018230475 1.126 166 86 40 255
0.25629905 -0.018230475 1.126 166 86 40 255
0.2584438 -0.018230475 1.126 166 86 40 255
0.26058859 -0.018230475 1.126 166 86 40 255
0.26366666 -0.018295238 1.13 166 86 40 255
0.26676002 -0.018360002 1.1340001 166 86 40 255
0.26892003 -0.018360002 1.1340001 166 86 40 255
0.27107999 -0.018360002 1.1340001 166 86 40 255
0.27324 -0.018360002 1.1340001 166 86 40 255
0.27442858 -0.018295238 1.13 166 86 40 255
0.27658096 -0.018295238 1.13 166 86 40 255
0.27774668 -0.018230475 1.126 166 86 40 255
0.27989143 -0.018230475 1.126 166 86 40 255
0.28203619 -0.018230475 1.126 166 86 40 255
0.28519049 -0.018295238 1.13 166 86 40 255
0.28734285 -0.018295238 1.13 166 86 40 255
0.28949523 -0.018295238 1.13 166 86 40 255
0.29164761 -0.018295238 1.13 166 86 40 255
0.29484004 -0.018360002 1.1340001 166 86 40 255
0.29595238 -0.018295238 1.13 166 86 40 255
0.29810476 -0.018295238 1.13 166 86 40 255
0.30025712 -0.018295238 1.13 166 86 40 255
0.30240953 -0.018295238 1.13 166 86 40 255
0.30456191 -0.018295238 1.13 166 86 40 255
0.30780002 -0.018360002 1.1340001 166 86 40 255
0.30996001 -0.018360002 1.1340001 166 86 40 255
0.31212002 -0.018360002 1.1340001 166 86 40 255
0.31428 -0.018360002 1.1340001 166 86 40 255
0.31644002 -0.018360002 1.1340001 166 86 40 255
0.31972378 -0.018424762 1.138 166 86 40 255
0.2418943 -0.017528573 1.2270001 166 86 40 255
0.24423145 -0.017528573 1.2270001 166 86 40 255
0.23812859 -0.016928572 1.1850001 166 86 40 255
0.23957431 -0.01687143 1.1810001 166 86 40 255
0.24182382 -0.01687143 1.1810001 166 86 40 255
0.24324667 -0.016814286 1.177 166 86 40 255
0.24382001 -0.0167 1.169 166 86 40 255
0.24352098 -0.016528573 1.1570001 166 86 40 255
0.24402574 -0.016414287 1.149 166 86 40 255
0.24535717 -0.016357144 1.1450001 166 86 40 255
0.24602474 -0.016257143 1.138 166 86 40 255
0.24732 -0.0162 1.1340001 166 86 40 255
0.24948001 -0.0162 1.1340001 166 86 40 255
0.25075239 -0.016142858 1.13 166 86 40 255
0.25290474 -0.016142858 1.13 166 86 40 255
0.25415429 -0.016085716 1.126 166 86 40 255
0.25629905 -0.016085716 1.126 166 86 40 255
0.2584438 -0.016085716 1.126 166 86 40 255
0.26058859 -0.016085716 1.126 166 86 40 255
0.26273334 -0.016085716 1.126 166 86 40 255
0.26581904 -0.016142858 1.13 166 86 40 255
0.26797143 -0.016142858 1.13 166 86 40 255
0.27107999 -0.0162 1.1340001 166 86 40 255
0.27324 -0.0162 1.1340001 166 86 40 255
0.27442858 -0.016142858 1.13 166 86 40 255
0.27658096 -0.016142858 1.13 166 86 40 255
0.27774668 -0.016085716 1.126 166 86 40 255
0.27989143 -0.016085716 1.126 166 86 40 255
0.28203619 -0.016085716 1.126 166 86 40 255
0.28519049 -0.016142858 1.13 166 86 40 255
0.28734285 -0.016142858 1.13 166 86 40 255
0.28949523 -0.016142858 1.13 166 86 40 255
0.29164761 -0.016142858 1.13 166 86 40 255
0.29484004 -0.0162 1.1340001 166 86 40 255
0.29595238 -0.016142858 1.13 166 86 40 255
0.29810476 -0.016142858 1.13 166 86 40 255
0.30132002 -0.0162 1.1340001 166 86 40 255
0.30240953 -0.016142858 1.13 166 86 40 255
0.30456191 -0.016142858 1.13 166 86 40 255
0.30780002 -0.0162 1.1340001 166 86 40 255
0.30996001 -0.0162 1.1340001 166 86 40 255
0.31212002 -0.0162 1.1340001 166 86 40 255
0.31428 -0.0162 1.1340001 166 86 40 255
0.31644002 -0.0162 1.1340001 166 86 40 255
0.31972378 -0.016257143 1.138 166 86 40 255
0.2418943 -0.015191429 1.2270001 166 86 40 255
0.24423145 -0.015191429 1.2270001 166 86 40 255
0.23812859 -0.014671429 1.1850001 166 86 40 255
0.24038573 -0.014671429 1.1850001 166 86 40 255
0.24182382 -0.014621906 1.1810001 166 86 40 255
0.24324667 -0.014572381 1.177 166 86 40 255
0.24382001 -0.014473334 1.169 166 86 40 255
0.24352098 -0.014324762 1.1570001 166 86 40 255
0.24402574 -0.014225715 1.149 166 86 40 255
0.24535717 -0.014176192 1.1450001 166 86 40 255
0.24602474 -0.014089524 1.138 166 86 40 255
0.24732 -0.014040001 1.1340001 166 86 40 255
0.24948001 -0.014040001 1.1340001 166 86 40 255
0.25075239 -0.013990476 1.13 166 86 40 255
0.25290474 -0.013990476 1.13 166 86 40 255
0.25415429 -0.013940953 1.126 166 86 40 255
0.25629905 -0.013940953 1.126 166 86 40 255
0.2584438 -0.013940953 1.126 166 86 40 255
0.26058859 -0.013940953 1.126 166 86 40 255
0.26273334 -0.013940953 1.126 166 86 40 255
0.26581904 -0.013990476 1.13 166 86 40 255
0.26797143 -0.013990476 1.13 166 86 40 255
0.27012381 -0.013990476 1.13 166 86 40 255
0.27227616 -0.013990476 1.13 166 86 40 255
0.27442858 -0.013990476 1.13 166 86 40 255
0.27658096 -0.013990476 1.13 166 86 40 255
0.27774668 -0.013940953 1.126 166 86 40 255
0.27989143 -0.013940953 1.126 166 86 40 255
0.28203619 -0.013940953 1.126 166 86 40 255
0.28519049 -0.013990476 1.13 166 86 40 255
0.28734285 -0.013990476 1.13 166 86 40 255
0.28949523 -0.013990476 1.13 166 86 40 255
0.29164761 -0.013990476 1.13 166 86 40 255
0.29484004 -0.014040001 1.1340001 166 86 40 255
0.29595238 -0.013990476 1.13 166 86 40 255
0.29810476 -0.013990476 1.13 166 86 40 255
0.30132002 -0.014040001 1.1340001 166 86 40 255
0.30240953 -0.013990476 1.13 166 86 40 255
0.30456191 -0.013990476 1.13 166 86 40 255
0.30780002 -0.014040001 1.1340001 166 86 40 255
0.30996001 -0.014040001 1.1340001 166 86 40 255
0.31212002 -0.014040001 1.1340001 166 86 40 255
0.31428 -0.014040001 1.1340001 166 86 40 255
0.31644002 -0.014040001 1.1340001 166 86 40 255
0.31972378 -0.014089524 1.138 166 86 40 255
0.23812859 -0.012414286 1.1850001 166 86 40 255
0.23957431 -0.012372382 1.1810001 166 86 40 255
0.24182382 -0.012372382 1.1810001 166 86 40 255
0.24407336 -0.012372382 1.1810001 166 86 40 255
0.24465431 -0.012288572 1.1730001 166 86 40 255
0.24436285 -0.012162857 1.161 166 86 40 255
0.24487522 -0.012079047 1.153 166 86 40 255
0.2462143 -0.012037144 1.149 166 86 40 255
0.24667335 -0.011953333 1.141 166 86 40 255
0.24819237 -0.011921904 1.138 166 86 40 255
0.24948001 -0.011880001 1.1340001 166 86 40 255
0.25164002 -0.011880001 1.1340001 166 86 40 255
0.25290474 -0.011838095 1.13 166 86 40 255
0.25505713 -0.011838095 1.13 166 86 40 255
0.25629905 -0.011796191 1.126 166 86 40 255
0.2584438 -0.011796191 1.126 166 86 40 255
0.26058859 -0.011796191 1.126 166 86 40 255
0.26273334 -0.011796191 1.126 166 86 40 255
0.26487809 -0.011796191 1.126 166 86 40 255
0.26702288 -0.011796191 1.126 166 86 40 255
0.27012381 -0.011838095 1.13 166 86 40 255
0.27227616 -0.011838095 1.13 166 86 40 255
0.27442858 -0.011838095 1.13 166 86 40 255
0.27658096 -0.011838095 1.13 166 86 40 255
0.27774668 -0.011796191 1.126 166 86 40 255
0.27989143 -0.011796191 1.126 166 86 40 255
0.28203619 -0.011796191 1.126 166 86 40 255
0.28519049 -0.011838095 1.13 166 86 40 255
0.28734285 -0.011838095 1.13 166 86 40 255
0.28949523 -0.011838095 1.13 166 86 40 255
0.29164761 -0.011838095 1.13 166 86 40 255
0.2938 -0.011838095 1.13 166 86 40 255
0.29595238 -0.011838095 1.13 166 86 40 255
0.29810476 -0.011838095 1.13 166 86 40 255
0.30025712 -0.011838095 1.13 166 86 40 255
0.30240953 -0.011838095 1.13 166 86 40 255
0.30456191 -0.011838095 1.13 166 86 40 255
0.30780002 -0.011880001 1.1340001 166 86 40 255
0.30996001 -0.011880001 1.1340001 166 86 40 255
0.31212002 -0.011880001 1.1340001 166 86 40 255
0.31428 -0.011880001 1.1340001 166 86 40 255
0.31644002 -0.011880001 1.1340001 166 86 40 255
0.23812859 -0.010157144 1.1850001 166 86 40 255
0.23957431 -0.010122858 1.1810001 166 86 40 255
0.24182382 -0.010122858 1.1810001 166 86 40 255
0.24407336 -0.010122858 1.1810001 166 86 40 255
0.24548857 -0.010088571 1.177 166 86 40 255
0.24604666 -0.01002 1.169 166 86 40 255
0.24487522 -0.0098828571 1.153 166 86 40 255
0.2462143 -0.0098485723 1.149 166 86 40 255
0.2475381 -0.0098142866 1.1450001 166 86 40 255
0.24819237 -0.0097542861 1.138 166 86 40 255
0.25035998 -0.0097542861 1.138 166 86 40 255
0.25164002 -0.0097200004 1.1340001 166 86 40 255
0.2538 -0.0097200004 1.1340001 166 86 40 255
0.25505713 -0.0096857138 1.13 166 86 40 255
0.25629905 -0.009651429 1.126 166 86 40 255
0.2584438 -0.009651429 1.126 166 86 40 255
0.26058859 -0.009651429 1.126 166 86 40 255
0.26273334 -0.009651429 1.126 166 86 40 255
0.26487809 -0.009651429 1.126 166 86 40 255
0.26702288 -0.009651429 1.126 166 86 40 255
0.26916763 -0.009651429 1.126 166 86 40 255
0.27131239 -0.009651429 1.126 166 86 40 255
0.27345714 -0.009651429 1.126 166 86 40 255
0.27560192 -0.009651429 1.126 166 86 40 255
0.27774668 -0.009651429 1.126 166 86 40 255
0.27989143 -0.009651429 1.126 166 86 40 255
0.28203619 -0.009651429 1.126 166 86 40 255
0.28418097 -0.009651429 1.126 166 86 40 255
0.28632572 -0.009651429 1.126 166 86 40 255
0.28847048 -0.009651429 1.126 166 86 40 255
0.29164761 -0.0096857138 1.13 166 86 40 255
0.2938 -0.0096857138 1.13 166 86 40 255
0.29595238 -0.0096857138 1.13 166 86 40 255
0.29810476 -0.0096857138 1.13 166 86 40 255
0.30025712 -0.0096857138 1.13 166 86 40 255
0.30240953 -0.0096857138 1.13 166 86 40 255
0.30456191 -0.0096857138 1.13 166 86 40 255
0.30780002 -0.0097200004 1.1340001 166 86 40 255
0.30996001 -0.0097200004 1.1340001 166 86 40 255
0.31212002 -0.0097200004 1.1340001 166 86 40 255
0.31428 -0.0097200004 1.1340001 166 86 40 255
0.24038573 -0.0078999996 1.1850001 166 86 40 255
0.24182382 -0.007873334 1.1810001 166 86 40 255
0.24407336 -0.007873334 1.1810001 166 86 40 255
0.24548857 -0.0078466665 1.177 166 86 40 255
0.24688859 -0.0078199999 1.1730001 166 86 40 255
0.24572478 -0.0077133342 1.1570001 166 86 40 255
0.24707142 -0.0076866667 1.153 166 86 40 255
0.24840285 -0.0076600001 1.149 166 86 40 255
0.24884667 -0.007606667 1.141 166 86 40 255
0.25102001 -0.007606667 1.141 166 86 40 255
0.25252759 -0.0075866668 1.138 166 86 40 255
0.25469524 -0.0075866668 1.138 166 86 40 255
0.25686285 -0.0075866668 1.138 166 86 40 255
0.25812 -0.0075600008 1.1340001 166 86 40 255
0.2584438 -0.0075066672 1.126 166 86 40 255
0.26058859 -0.0075066672 1.126 166 86 40 255
0.26273334 -0.0075066672 1.126 166 86 40 255
0.26487809 -0.0075066672 1.126 166 86 40 255
0.26702288 -0.0075066672 1.126 166 86 40 255
0.26916763 -0.0075066672 1.126 166 86 40 255
0.27131239 -0.0075066672 1.126 166 86 40 255
0.27345714 -0.0075066672 1.126 166 86 40 255
0.27560192 -0.0075066672 1.126 166 86 40 255
0.27774668 -0.0075066672 1.126 166 86 40 255
0.27989143 -0.0075066672 1.126 166 86 40 255
0.28203619 -0.0075066672 1.126 166 86 40 255
0.28418097 -0.0075066672 1.126 166 86 40 255
0.28632572 -0.0075066672 1.126 166 86 40 255
0.28847048 -0.0075066672 1.126 166 86 40 255
0.29061526 -0.0075066672 1.126 166 86 40 255
0.2938 -0.0075333333 1.13 166 86 40 255
0.29595238 -0.0075333333 1.13 166 86 40 255
0.29810476 -0.0075333333 1.13 166 86 40 255
0.30025712 -0.0075333333 1.13 166 86 40 255
0.30240953 -0.0075333333 1.13 166 86 40 255
0.30456191 -0.0075333333 1.13 166 86 40 255
0.30671427 -0.0075333333 1.13 166 86 40 255
0.30996001 -0.0075600008 1.1340001 166 86 40 255
0.31212002 -0.0075600008 1.1340001 166 86 40 255
0.24656861 -0.0058428575 1.2270001 166 86 40 255
0.24890572 -0.0058428575 1.2270001 166 86 40 255
0.24264286 -0.0056428574 1.1850001 166 86 40 255
0.24490002 -0.0056428574 1.1850001 166 86 40 255
0.24548857 -0.0056047621 1.177 166 86 40 255
0.24604666 -0.0055666668 1.169 166 86 40 255
0.24742381 -0.0055476194 1.1650001 166 86 40 255
0.24792857 -0.0055095241 1.1570001 166 86 40 255
0.24926761 -0.0054904758 1.153 166 86 40 255
0.25059143 -0.0054714289 1.149 166 86 40 255
0.25190002 -0.0054523814 1.1450001 166 86 40 255
0.25319332 -0.0054333331 1.141 166 86 40 255
0.25536668 -0.0054333331 1.141 166 86 40 255
0.25686285 -0.0054190475 1.138 166 86 40 255
0.25812 -0.0054000001 1.1340001 166 86 40 255
0.25936189 -0.0053809523 1.13 166 86 40 255
0.26058859 -0.0053619049 1.126 166 86 40 255
0.26273334 -0.0053619049 1.126 166 86 40 255
0.26487809 -0.0053619049 1.126 166 86 40 255
0.26702288 -0.0053619049 1.126 166 86 40 255
0.26916763 -0.0053619049 1.126 166 86 40 255
0.27131239 -0.0053619049 1.126 166 86 40 255
0.27345714 -0.0053619049 1.126 166 86 40 255
0.27560192 -0.0053619049 1.126 166 86 40 255
0.27774668 -0.0053619049 1.126 166 86 40 255
0.27989143 -0.0053619049 1.126 166 86 40 255
0.28203619 -0.0053619049 1.126 166 86 40 255
0.28418097 -0.0053619049 1.126 166 86 40 255
0.28632572 -0.0053619049 1.126 166 86 40 255
0.28847048 -0.0053619049 1.126 166 86 40 255
0.29061526 -0.0053619049 1.126 166 86 40 255
0.2938 -0.0053809523 1.13 166 86 40 255
0.29595238 -0.0053809523 1.13 166 86 40 255
0.29810476 -0.0053809523 1.13 166 86 40 255
0.30025712 -0.0053809523 1.13 166 86 40 255
0.30240953 -0.0053809523 1.13 166 86 40 255
0.30456191 -0.0053809523 1.13 166 86 40 255
0.30671427 -0.0053809523 1.13 166 86 40 255
0.30996001 -0.0054000001 1.1340001 166 86 40 255
0.24656861 -0.0035057145 1.2270001 166 86 40 255
0.24383429 -0.0034342855 1.202 166 86 40 255
0.24428098 -0.0034085717 1.1930001 166 86 40 255
0.24490002 -0.0033857145 1.1850001 166 86 40 255
0.24632289 -0.003374286 1.1810001 166 86 40 255
0.24604666 -0.0033399998 1.169 166 86 40 255
0.24827334 -0.0033399998 1.169 166 86 40 255
0.24878572 -0.0033171428 1.161 166 86 40 255
0.25013238 -0.0033057143 1.1570001 166 86 40 255
0.2514638 -0.0032942859 1.153 166 86 40 255
0.25277999 -0.0032828571 1.149 166 86 40 255
0.25496858 -0.0032828571 1.149 166 86 40 255
0.25626191 -0.0032714289 1.1450001 166 86 40 255
0.25754002 -0.0032600001 1.141 166 86 40 255
0.25903046 -0.0032514285 1.138 166 86 40 255
0.25936189 -0.0032285713 1.13 166 86 40 255
0.26151428 -0.0032285713 1.13 166 86 40 255
0.26366666 -0.0032285713 1.13 166 86 40 255
0.26487809 -0.003217143 1.126 166 86 40 255
0.26702288 -0.003217143 1.126 166 86 40 255
0.26916763 -0.003217143 1.126 166 86 40 255
0.27227616 -0.0032285713 1.13 166 86 40 255
0.27345714 -0.003217143 1.126 166 86 40 255
0.27560192 -0.003217143 1.126 166 86 40 255
0.27774668 -0.003217143 1.126 166 86 40 255
0.27989143 -0.003217143 1.126 166 86 40 255
0.28203619 -0.003217143 1.126 166 86 40 255
0.28519049 -0.0032285713 1.13 166 86 40 255
0.28632572 -0.003217143 1.126 166 86 40 255
0.28847048 -0.003217143 1.126 166 86 40 255
0.29061526 -0.003217143 1.126 166 86 40 255
0.29276001 -0.003217143 1.126 166 86 40 255
0.29595238 -0.0032285713 1.13 166 86 40 255
0.29810476 -0.0032285713 1.13 166 86 40 255
0.24395621 -0.0011561905 1.2140001 166 86 40 255
0.24383429 -0.0011447619 1.202 166 86 40 255
0.24428098 -0.0011361905 1.1930001 166 86 40 255
0.24572666 -0.0011323809 1.189 166 86 40 255
0.24715716 -0.0011285715 1.1850001 166 86 40 255
0.24857241 -0.001124762 1.1810001 166 86 40 255
0.24912286 -0.001117143 1.1730001 166 86 40 255
0.25049999 -0.0011133334 1.169 166 86 40 255
0.25099713 -0.0011057142 1.161 166 86 40 255
0.2523362 -0.0011019048 1.1570001 166 86 40 255
0.25454003 -0.0011019048 1.1570001 166 86 40 255
0.25585619 -0.0010980952 1.153 166 86 40 255
0.25715715 -0.0010942857 1.149 166 86 40 255
0.25844288 -0.0010904763 1.1450001 166 86 40 255
0.25971332 -0.0010866667 1.141 166 86 40 255
0.26119807 -0.0010838095 1.138 166 86 40 255
0.26244 -0.0010800001 1.1340001 166 86 40 255
0.26460001 -0.0010800001 1.1340001 166 86 40 255
0.26581904 -0.0010761905 1.13 166 86 40 255
0.26702288 -0.001072381 1.126 166 86 40 255
0.26916763 -0.001072381 1.126 166 86 40 255
0.27227616 -0.0010761905 1.13 166 86 40 255
0.27345714 -0.001072381 1.126 166 86 40 255
0.27560192 -0.001072381 1.126 166 86 40 255
0.27774668 -0.001072381 1.126 166 86 40 255
0.27989143 -0.001072381 1.126 166 86 40 255
0.28203619 -0.001072381 1.126 166 86 40 255
0.28418097 -0.001072381 1.126 166 86 40 255
0.28556284 -0.0010695239 1.123 166 86 40 255
0.2877019 -0.0010695239 1.123 166 86 40 255
0.28984097 -0.0010695239 1.123 166 86 40 255
0.29276001 -0.001072381 1.126 166 86 40 255
0.24395621 0.0011561905 1.2140001 166 86 40 255
0.24464573 0.0011485715 1.2060001 166 86 40 255
0.24510001 0.0011400001 1.197 166 86 40 255
0.24737999 0.0011400001 1.197 166 86 40 255
0.24799141 0.0011323809 1.189 166 86 40 255
0.24941429 0.0011285715 1.1850001 166 86 40 255
0.25082195 0.001124762 1.1810001 166 86 40 255
0.25049999 0.0011133334 1.169 166 86 40 255
0.25186193 0.0011095239 1.1650001 166 86 40 255
0.25320855 0.0011057142 1.161 166 86 40 255
0.25542 0.0011057142 1.161 166 86 40 255
0.25674382 0.0011019048 1.1570001 166 86 40 255
0.25805238 0.0010980952 1.153 166 86 40 255
0.26024854 0.0010980952 1.153 166 86 40 255
0.2615343 0.0010942857 1.149 166 86 40 255
0.26188669 0.0010866667 1.141 166 86 40 255
0.26336572 0.0010838095 1.138 166 86 40 255
0.26553333 0.0010838095 1.138 166 86 40 255
0.26581904 0.0010761905 1.13 166 86 40 255
0.26797143 0.0010761905 1.13 166 86 40 255
0.27012381 0.0010761905 1.13 166 86 40 255
0.27227616 0.0010761905 1.13 166 86 40 255
0.27345714 0.001072381 1.126 166 86 40 255
0.27560192 0.001072381 1.126 166 86 40 255
0.27774668 0.001072381 1.126 166 86 40 255
0.27914572 0.0010695239 1.123 166 86 40 255
0.28128475 0.0010695239 1.123 166 86 40 255
0.28342381 0.0010695239 1.123 166 86 40 255
0.28556284 0.0010695239 1.123 166 86 40 255
0.2877019 0.0010695239 1.123 166 86 40 255
0.28984097 0.0010695239 1.123 166 86 40 255
0.24656861 0.0035057145 1.2270001 166 86 40 255
0.24464573 0.0034457145 1.2060001 166 86 40 255
0.24612381 0.0034342855 1.202 166 86 40 255
0.24737999 0.00342 1.197 166 86 40 255
0.24882574 0.0034085717 1.1930001 166 86 40 255
0.24941429 0.0033857145 1.1850001 166 86 40 255
0.25082195 0.003374286 1.1810001 166 86 40 255
0.25221428 0.0033628573 1.177 166 86 40 255
0.25272667 0.0033399998 1.169 166 86 40 255
0.25408095 0.0033285718 1.1650001 166 86 40 255
0.2563 0.0033285718 1.1650001 166 86 40 255
0.25763142 0.0033171428 1.161 166 86 40 255
0.25894764 0.0033057143 1.1570001 166 86 40 255
0.26115143 0.0033057143 1.1570001 166 86 40 255
0.26244473 0.0032942859 1.153 166 86 40 255
0.26372284 0.0032828571 1.149 166 86 40 255
0.26498574 0.0032714289 1.1450001 166 86 40 255
0.26553333 0.0032514285 1.138 166 86 40 255
0.26676002 0.0032400002 1.1340001 166 86 40 255
0.26797143 0.0032285713 1.13 166 86 40 255
0.27012381 0.0032285713 1.13 166 86 40 255
0.27227616 0.0032285713 1.13 166 86 40 255
0.27272859 0.0032085713 1.123 166 86 40 255
0.27486759 0.0032085713 1.123 166 86 40 255
0.27700666 0.0032085713 1.123 166 86 40 255
0.27715716 0.0031857144 1.115 166 86 40 255
0.27928093 0.0031857144 1.115 166 86 40 255
0.28342381 0.0032085713 1.123 166 86 40 255
0.24576476 0.0058238097 1.223 166 86 40 255
0.24545716 0.0057619051 1.21 166 86 40 255
0.24694286 0.0057428577 1.2060001 166 86 40 255
0.24841334 0.0057238098 1.202 166 86 40 255
0.24966 0.0057000001 1.197 166 86 40 255
0.25025621 0.0056619048 1.189 166 86 40 255
0.25082195 0.00562381 1.1810001 166 86 40 255
0.25221428 0.0056047621 1.177 166 86 40 255
0.25272667 0.0055666668 1.169 166 86 40 255
0.25408095 0.0055476194 1.1650001 166 86 40 255
0.2563 0.0055476194 1.1650001 166 86 40 255
0.25851905 0.0055476194 1.1650001 166 86 40 255
0.25984284 0.0055285715 1.161 166 86 40 255
0.26205429 0.0055285715 1.161 166 86 40 255
0.26244473 0.0054904758 1.153 166 86 40 255
0.26372284 0.0054714289 1.149 166 86 40 255
0.26498574 0.0054523814 1.1450001 166 86 40 255
0.26553333 0.0054190475 1.138 166 86 40 255
0.26770094 0.0054190475 1.138 166 86 40 255
0.26892003 0.0054000001 1.1340001 166 86 40 255
0.27107999 0.0054000001 1.1340001 166 86 40 255
0.27227616 0.0053809523 1.13 166 86 40 255
0.27272859 0.0053476193 1.123 166 86 40 255
0.27486759 0.0053476193 1.123 166 86 40 255
0.27700666 0.0053476193 1.123 166 86 40 255
0.27715716 0.0053095235 1.115 166 86 40 255
0.27928093 0.0053095235 1.115 166 86 40 255
0.24576476 0.0081533343 1.223 166 86 40 255
0.2462686 0.0080933347 1.2140001 166 86 40 255
0.24776189 0.0080666672 1.21 166 86 40 255
0.25006667 0.0080666672 1.21 166 86 40 255
0.25237146 0.0080666672 1.21 166 86 40 255
0.25299236 0.0080133341 1.202 166 86 40 255
0.25167143 0.0078999996 1.1850001 166 86 40 255
0.25307146 0.007873334 1.1810001 166 86 40 255
0.25445619 0.0078466665 1.177 166 86 40 255
0.25495335 0.0077933338 1.169 166 86 40 255
0.25718001 0.0077933338 1.169 166 86 40 255
0.25851905 0.0077666673 1.1650001 166 86 40 255
0.2607381 0.0077666673 1.1650001 166 86 40 255
0.26205429 0.0077399998 1.161 166 86 40 255
0.26244473 0.0076866667 1.153 166 86 40 255
0.26464093 0.0076866667 1.153 166 86 40 255
0.26498574 0.0076333336 1.1450001 166 86 40 255
0.26623335 0.007606667 1.141 166 86 40 255
0.26840666 0.007606667 1.141 166 86 40 255
0.27057999 0.007606667 1.141 166 86 40 255
0.27275336 0.007606667 1.141 166 86 40 255
0.27492666 0.007606667 1.141 166 86 40 255
0.24728289 0.010448572 1.2190001 166 86 40 255
0.24858096 0.010405715 1.2140001 166 86 40 255
0.25089335 0.010405715 1.2140001 166 86 40 255
0.25320575 0.010405715 1.2140001 166 86 40 255
0.25551814 0.010405715 1.2140001 166 86 40 255
0.2578305 0.010405715 1.2140001 166 86 40 255
0.25307146 0.010122858 1.1810001 166 86 40 255
0.25445619 0.010088571 1.177 166 86 40 255
0.25582576 0.010054287 1.1730001 166 86 40 255
0.25718001 0.01002 1.169 166 86 40 255
0.25940669 0.01002 1.169 166 86 40 255
0.26163334 0.01002 1.169 166 86 40 255
0.26295716 0.0099857152 1.1650001 166 86 40 255
0.26335526 0.0099171428 1.1570001 166 86 40 255
0.26464093 0.0098828571 1.153 166 86 40 255
0.26591143 0.0098485723 1.149 166 86 40 255
0.26809999 0.0098485723 1.149 166 86 40 255
0.27028859 0.0098485723 1.149 166 86 40 255
0.27247715 0.0098485723 1.149 166 86 40 255
0.24728289 0.012770478 1.2190001 166 86 40 255
0.24960478 0.012770478 1.2190001 166 86 40 255
0.25192666 0.012770478 1.2190001 166 86 40 255
0.25424859 0.012770478 1.2190001 166 86 40 255
0.2574124 0.012812382 1.223 166 86 40 255
0.25359145 0.012288572 1.1730001 166 86 40 255
0.25582576 0.012288572 1.1730001 166 86 40 255
0.25806001 0.012288572 1.1730001 166 86 40 255
0.26029429 0.012288572 1.1730001 166 86 40 255
0.26163334 0.012246666 1.169 166 86 40 255
0.26295716 0.012204763 1.1650001 166 86 40 255
0.26426572 0.012162857 1.161 166 86 40 255
0.26647714 0.012162857 1.161 166 86 40 255
