ply
format ascii 1.0
comment PCL generated
element vertex 191
property float x
property float y
property float z
property uchar red
property uchar green
property uchar blue
property uchar alpha
element camera 1
property float view_px
property float view_py
property float view_pz
property float x_axisx
property float x_axisy
property float x_axisz
property float y_axisx
property float y_axisy
property float y_axisz
property float z_axisx
property float z_axisy
property float z_axisz
property float focal
property float scalex
property float scaley
property float centerx
property float centery
property int viewportx
property int viewporty
property float k1
property float k2
end_header
0.059597149 -0.057260003 1.2270001 170 255 93 255
0.061934292 -0.057260003 1.2270001 170 255 93 255
0.064271435 -0.057260003 1.2270001 170 255 93 255
0.066608571 -0.057260003 1.2270001 170 255 93 255
0.059402857 -0.054743811 1.223 170 255 93 255
0.061732382 -0.054743811 1.223 170 255 93 255
0.064061902 -0.054743811 1.223 170 255 93 255
0.066391431 -0.054743811 1.223 170 255 93 255
0.068945721 -0.054922864 1.2270001 170 255 93 255
0.071282864 -0.054922864 1.2270001 170 255 93 255
0.047755238 -0.052414287 1.223 170 255 93 255
0.050084762 -0.052414287 1.223 170 255 93 255
0.052414287 -0.052414287 1.223 170 255 93 255
0.054743811 -0.052414287 1.223 170 255 93 255
0.057073336 -0.052414287 1.223 170 255 93 255
0.059208576 -0.05224286 1.2190001 170 255 93 255
0.061530478 -0.05224286 1.2190001 170 255 93 255
0.063852385 -0.05224286 1.2190001 170 255 93 255
0.066391431 -0.052414287 1.223 170 255 93 255
0.068945721 -0.052585717 1.2270001 170 255 93 255
0.071282864 -0.052585717 1.2270001 170 255 93 255
0.043096192 -0.050084762 1.223 170 255 93 255
0.045425717 -0.050084762 1.223 170 255 93 255
0.047599051 -0.049920954 1.2190001 170 255 93 255
0.049920954 -0.049920954 1.2190001 170 255 93 255
0.052028574 -0.049716193 1.2140001 170 255 93 255
0.054340959 -0.049716193 1.2140001 170 255 93 255
0.056653336 -0.049716193 1.2140001 170 255 93 255
0.05896572 -0.049716193 1.2140001 170 255 93 255
0.061530478 -0.049920954 1.2190001 170 255 93 255
0.063852385 -0.049920954 1.2190001 170 255 93 255
0.066174291 -0.049920954 1.2190001 170 255 93 255
0.040766668 -0.047755238 1.223 170 255 93 255
0.042955242 -0.047599051 1.2190001 170 255 93 255
0.045277145 -0.047599051 1.2190001 170 255 93 255
0.047403816 -0.047403816 1.2140001 170 255 93 255
0.049716193 -0.047403816 1.2140001 170 255 93 255
0.051857144 -0.047247618 1.21 170 255 93 255
0.054161906 -0.047247618 1.21 170 255 93 255
0.056653336 -0.047403816 1.2140001 170 255 93 255
0.05896572 -0.047403816 1.2140001 170 255 93 255
0.061278097 -0.047403816 1.2140001 170 255 93 255
0.063590482 -0.047403816 1.2140001 170 255 93 255
0.066174291 -0.047599051 1.2190001 170 255 93 255
0.068720959 -0.047755238 1.223 170 255 93 255
0.040766668 -0.045425717 1.223 170 255 93 255
0.042955242 -0.045277145 1.2190001 170 255 93 255
0.045091432 -0.045091432 1.2140001 170 255 93 255
0.047247618 -0.04494286 1.21 170 255 93 255
0.049552381 -0.04494286 1.21 170 255 93 255
0.051685717 -0.044794288 1.2060001 170 255 93 255
0.053982858 -0.044794288 1.2060001 170 255 93 255
0.056280006 -0.044794288 1.2060001 170 255 93 255
0.058577146 -0.044794288 1.2060001 170 255 93 255
0.060874287 -0.044794288 1.2060001 170 255 93 255
0.063380957 -0.04494286 1.21 170 255 93 255
0.065902859 -0.045091432 1.2140001 170 255 93 255
0.068496197 -0.045277145 1.2190001 170 255 93 255
0.040766668 -0.043096192 1.223 170 255 93 255
0.042779051 -0.042779051 1.2140001 170 255 93 255
0.04494286 -0.042638097 1.21 170 255 93 255
0.047091432 -0.042497143 1.2060001 170 255 93 255
0.049388576 -0.042497143 1.2060001 170 255 93 255
0.051685717 -0.042497143 1.2060001 170 255 93 255
0.053982858 -0.042497143 1.2060001 170 255 93 255
0.056280006 -0.042497143 1.2060001 170 255 93 255
0.058577146 -0.042497143 1.2060001 170 255 93 255
0.060874287 -0.042497143 1.2060001 170 255 93 255
0.063380957 -0.042638097 1.21 170 255 93 255
0.065902859 -0.042779051 1.2140001 170 255 93 255
0.068496197 -0.042955242 1.2190001 170 255 93 255
0.042779051 -0.04046667 1.2140001 170 255 93 255
0.04494286 -0.040333334 1.21 170 255 93 255
0.047091432 -0.040200002 1.2060001 170 255 93 255
0.049388576 -0.040200002 1.2060001 170 255 93 255
0.051514287 -0.040066667 1.202 170 255 93 255
0.053803809 -0.040066667 1.202 170 255 93 255
0.056093335 -0.040066667 1.202 170 255 93 255
0.058382858 -0.040066667 1.202 170 255 93 255
0.06067238 -0.040066667 1.202 170 255 93 255
0.063171431 -0.040200002 1.2060001 170 255 93 255
0.065902859 -0.04046667 1.2140001 170 255 93 255
0.068496197 -0.040633336 1.2190001 170 255 93 255
0.042779051 -0.038154289 1.2140001 170 255 93 255
0.04494286 -0.038028572 1.21 170 255 93 255
0.047091432 -0.037902862 1.2060001 170 255 93 255
0.04922476 -0.037777144 1.202 170 255 93 255
0.051514287 -0.037777144 1.202 170 255 93 255
0.053803809 -0.037777144 1.202 170 255 93 255
0.056093335 -0.037777144 1.202 170 255 93 255
0.058382858 -0.037777144 1.202 170 255 93 255
0.06067238 -0.037777144 1.202 170 255 93 255
0.063171431 -0.037902862 1.2060001 170 255 93 255
0.065685712 -0.038028572 1.21 170 255 93 255
0.068496197 -0.038311433 1.2190001 170 255 93 255
0.040633336 -0.035989527 1.2190001 170 255 93 255
0.042779051 -0.035841908 1.2140001 170 255 93 255
0.04494286 -0.035723813 1.21 170 255 93 255
0.047091432 -0.035605714 1.2060001 170 255 93 255
0.04922476 -0.035487618 1.202 170 255 93 255
0.051514287 -0.035487618 1.202 170 255 93 255
0.053803809 -0.035487618 1.202 170 255 93 255
0.056093335 -0.035487618 1.202 170 255 93 255
0.058382858 -0.035487618 1.202 170 255 93 255
0.06067238 -0.035487618 1.202 170 255 93 255
0.062961906 -0.035487618 1.202 170 255 93 255
0.065468572 -0.035605714 1.2060001 170 255 93 255
0.068215244 -0.035841908 1.2140001 170 255 93 255
0.040633336 -0.03366762 1.2190001 170 255 93 255
0.042779051 -0.033529524 1.2140001 170 255 93 255
0.04494286 -0.033419047 1.21 170 255 93 255
0.047091432 -0.033308573 1.2060001 170 255 93 255
0.04922476 -0.033198096 1.202 170 255 93 255
0.051514287 -0.033198096 1.202 170 255 93 255
0.053803809 -0.033198096 1.202 170 255 93 255
0.056093335 -0.033198096 1.202 170 255 93 255
0.058382858 -0.033198096 1.202 170 255 93 255
0.06067238 -0.033198096 1.202 170 255 93 255
0.062961906 -0.033198096 1.202 170 255 93 255
0.065468572 -0.033308573 1.2060001 170 255 93 255
0.068215244 -0.033529524 1.2140001 170 255 93 255
0.070818104 -0.03366762 1.2190001 170 255 93 255
0.040633336 -0.031345718 1.2190001 170 255 93 255
0.042779051 -0.031217147 1.2140001 170 255 93 255
0.04494286 -0.031114288 1.21 170 255 93 255
0.047091432 -0.031011432 1.2060001 170 255 93 255
0.049388576 -0.031011432 1.2060001 170 255 93 255
0.051514287 -0.030908573 1.202 170 255 93 255
0.053803809 -0.030908573 1.202 170 255 93 255
0.056093335 -0.030908573 1.202 170 255 93 255
0.058382858 -0.030908573 1.202 170 255 93 255
0.06067238 -0.030908573 1.202 170 255 93 255
0.063171431 -0.031011432 1.2060001 170 255 93 255
0.065685712 -0.031114288 1.21 170 255 93 255
0.068215244 -0.031217147 1.2140001 170 255 93 255
0.070818104 -0.031345718 1.2190001 170 255 93 255
0.042955242 -0.029023811 1.2190001 170 255 93 255
0.045091432 -0.028904764 1.2140001 170 255 93 255
0.047247618 -0.028809523 1.21 170 255 93 255
0.049388576 -0.028714286 1.2060001 170 255 93 255
0.051514287 -0.028619049 1.202 170 255 93 255
0.053803809 -0.028619049 1.202 170 255 93 255
0.056093335 -0.028619049 1.202 170 255 93 255
0.058382858 -0.028619049 1.202 170 255 93 255
0.060874287 -0.028714286 1.2060001 170 255 93 255
0.063171431 -0.028714286 1.2060001 170 255 93 255
0.065685712 -0.028809523 1.21 170 255 93 255
0.068215244 -0.028904764 1.2140001 170 255 93 255
0.070818104 -0.029023811 1.2190001 170 255 93 255
0.045277145 -0.026701907 1.2190001 170 255 93 255
0.047403816 -0.026592383 1.2140001 170 255 93 255
0.049552381 -0.026504762 1.21 170 255 93 255
0.051685717 -0.026417146 1.2060001 170 255 93 255
0.053982858 -0.026417146 1.2060001 170 255 93 255
0.056280006 -0.026417146 1.2060001 170 255 93 255
0.058577146 -0.026417146 1.2060001 170 255 93 255
0.060874287 -0.026417146 1.2060001 170 255 93 255
0.063171431 -0.026417146 1.2060001 170 255 93 255
0.065685712 -0.026504762 1.21 170 255 93 255
0.068215244 -0.026592383 1.2140001 170 255 93 255
0.070818104 -0.026701907 1.2190001 170 255 93 255
0.047599051 -0.024380002 1.2190001 170 255 93 255
0.049716193 -0.02428 1.2140001 170 255 93 255
0.051857144 -0.0242 1.21 170 255 93 255
0.054161906 -0.0242 1.21 170 255 93 255
0.056466665 -0.0242 1.21 170 255 93 255
0.058771431 -0.0242 1.21 170 255 93 255
0.061278097 -0.02428 1.2140001 170 255 93 255
0.063590482 -0.02428 1.2140001 170 255 93 255
0.066174291 -0.024380002 1.2190001 170 255 93 255
0.047599051 -0.022058096 1.2190001 170 255 93 255
0.049920954 -0.022058096 1.2190001 170 255 93 255
0.052028574 -0.021967622 1.2140001 170 255 93 255
0.054340959 -0.021967622 1.2140001 170 255 93 255
0.056653336 -0.021967622 1.2140001 170 255 93 255
0.05896572 -0.021967622 1.2140001 170 255 93 255
0.061278097 -0.021967622 1.2140001 170 255 93 255
0.063852385 -0.022058096 1.2190001 170 255 93 255
0.066174291 -0.022058096 1.2190001 170 255 93 255
0.049920954 -0.019736191 1.2190001 170 255 93 255
0.05224286 -0.019736191 1.2190001 170 255 93 255
0.054564763 -0.019736191 1.2190001 170 255 93 255
0.056886673 -0.019736191 1.2190001 170 255 93 255
0.059208576 -0.019736191 1.2190001 170 255 93 255
0.061530478 -0.019736191 1.2190001 170 255 93 255
0.063852385 -0.019736191 1.2190001 170 255 93 255
0.054564763 -0.017414287 1.2190001 170 255 93 255
0.056886673 -0.017414287 1.2190001 170 255 93 255
0.059208576 -0.017414287 1.2190001 170 255 93 255
0.061530478 -0.017414287 1.2190001 170 255 93 255
0.063852385 -0.017414287 1.2190001 170 255 93 255
0 0 0 1 0 0 0 1 0 0 0 1 0 0 0 0 0 191 1 0 0
