ply
format ascii 1.0
comment PCL generated
element vertex 650
property float x
property float y
property float z
property uchar red
property uchar green
property uchar blue
property uchar alpha
element camera 1
property float view_px
property float view_py
property float view_pz
property float x_axisx
property float x_axisy
property float x_axisz
property float y_axisx
property float y_axisy
property float y_axisz
property float z_axisx
property float z_axisy
property float z_axisz
property float focal
property float scalex
property float scaley
property float centerx
property float centery
property int viewportx
property int viewporty
property float k1
property float k2
end_header
0.026504762 -0.38143811 1.21 0 0 68 255
0.028714286 -0.38017717 1.2060001 0 0 68 255
0.030908573 -0.37891617 1.202 0 0 68 255
0.033198096 -0.37891617 1.202 0 0 68 255
0.035605714 -0.38017717 1.2060001 0 0 68 255
0.019460952 -0.37662667 1.202 0 0 68 255
0.021750478 -0.37662667 1.202 0 0 68 255
0.024040001 -0.37662667 1.202 0 0 68 255
0.026504762 -0.37913334 1.21 0 0 68 255
0.028714286 -0.37788001 1.2060001 0 0 68 255
0.030908573 -0.37662667 1.202 0 0 68 255
0.033198096 -0.37662667 1.202 0 0 68 255
0.035605714 -0.37788001 1.2060001 0 0 68 255
0.037902862 -0.37788001 1.2060001 0 0 68 255
0.019460952 -0.37433717 1.202 0 0 68 255
0.021750478 -0.37433717 1.202 0 0 68 255
0.024040001 -0.37433717 1.202 0 0 68 255
0.026504762 -0.37682858 1.21 0 0 68 255
0.028714286 -0.37558287 1.2060001 0 0 68 255
0.031011432 -0.37558287 1.2060001 0 0 68 255
0.033308573 -0.37558287 1.2060001 0 0 68 255
0.035605714 -0.37558287 1.2060001 0 0 68 255
0.037902862 -0.37558287 1.2060001 0 0 68 255
0.019460952 -0.3720476 1.202 0 0 68 255
0.021750478 -0.3720476 1.202 0 0 68 255
0.024040001 -0.3720476 1.202 0 0 68 255
0.026504762 -0.37452382 1.21 0 0 68 255
0.028714286 -0.37328574 1.2060001 0 0 68 255
0.031011432 -0.37328574 1.2060001 0 0 68 255
0.033308573 -0.37328574 1.2060001 0 0 68 255
0.035605714 -0.37328574 1.2060001 0 0 68 255
0.037902862 -0.37328574 1.2060001 0 0 68 255
0.0242 -0.37221906 1.21 0 0 68 255
0.026504762 -0.37221906 1.21 0 0 68 255
0.028714286 -0.37098858 1.2060001 0 0 68 255
0.031011432 -0.37098858 1.2060001 0 0 68 255
0.033308573 -0.37098858 1.2060001 0 0 68 255
0.035605714 -0.37098858 1.2060001 0 0 68 255
0.037902862 -0.37098858 1.2060001 0 0 68 255
0.040200002 -0.37098858 1.2060001 0 0 68 255
0.0242 -0.36991429 1.21 0 0 68 255
0.026417146 -0.36869147 1.2060001 0 0 68 255
0.028714286 -0.36869147 1.2060001 0 0 68 255
0.031011432 -0.36869147 1.2060001 0 0 68 255
0.033308573 -0.36869147 1.2060001 0 0 68 255
0.035605714 -0.36869147 1.2060001 0 0 68 255
0.037902862 -0.36869147 1.2060001 0 0 68 255
0.040200002 -0.36869147 1.2060001 0 0 68 255
0.0242 -0.36760953 1.21 0 0 68 255
0.026417146 -0.36639431 1.2060001 0 0 68 255
0.028714286 -0.36639431 1.2060001 0 0 68 255
0.031011432 -0.36639431 1.2060001 0 0 68 255
0.033308573 -0.36639431 1.2060001 0 0 68 255
0.035605714 -0.36639431 1.2060001 0 0 68 255
0.037902862 -0.36639431 1.2060001 0 0 68 255
0.040200002 -0.36639431 1.2060001 0 0 68 255
0.015253334 -0.37194669 1.2320001 0 0 68 255
0.017600002 -0.37194669 1.2320001 0 0 68 255
0.019946668 -0.37194669 1.2320001 0 0 68 255
0.021895239 -0.36530477 1.21 0 0 68 255
0.0242 -0.36530477 1.21 0 0 68 255
0.026417146 -0.36409718 1.2060001 0 0 68 255
0.028714286 -0.36409718 1.2060001 0 0 68 255
0.031011432 -0.36409718 1.2060001 0 0 68 255
0.033308573 -0.36409718 1.2060001 0 0 68 255
0.035605714 -0.36409718 1.2060001 0 0 68 255
0.037902862 -0.36409718 1.2060001 0 0 68 255
0.040200002 -0.36409718 1.2060001 0 0 68 255
0.0012219049 -0.38490003 1.2830001 0 0 68 255
0.003651429 -0.38340002 1.2780001 0 0 68 255
0.0060619046 -0.38189998 1.273 0 0 68 255
0.0084866667 -0.38189998 1.273 0 0 68 255
0.010954286 -0.38340002 1.2780001 0 0 68 255
0.015253334 -0.36960003 1.2320001 0 0 68 255
0.017471429 -0.36690003 1.223 0 0 68 255
0.019800952 -0.36690003 1.223 0 0 68 255
0.021967622 -0.36420003 1.2140001 0 0 68 255
0.0242 -0.36300001 1.21 0 0 68 255
0.026417146 -0.36180001 1.2060001 0 0 68 255
0.028714286 -0.36180001 1.2060001 0 0 68 255
0.031011432 -0.36180001 1.2060001 0 0 68 255
0.033308573 -0.36180001 1.2060001 0 0 68 255
0.035605714 -0.36180001 1.2060001 0 0 68 255
0.037902862 -0.36180001 1.2060001 0 0 68 255
0.040200002 -0.36180001 1.2060001 0 0 68 255
0.044858098 -0.38189998 1.273 0 0 68 255
0.047282856 -0.38189998 1.273 0 0 68 255
0.049902864 -0.38340002 1.2780001 0 0 68 255
0.052337147 -0.38340002 1.2780001 0 0 68 255
0.054985717 -0.38490003 1.2830001 0 0 68 255
-0.0036657148 -0.38245621 1.2830001 0 0 68 255
-0.0012171429 -0.38096574 1.2780001 0 0 68 255
0.0012171429 -0.38096574 1.2780001 0 0 68 255
0.0036371427 -0.37947524 1.273 0 0 68 255
0.0060619046 -0.37947524 1.273 0 0 68 255
0.0084866667 -0.37947524 1.273 0 0 68 255
0.010868571 -0.37798476 1.268 0 0 68 255
0.013189524 -0.37530193 1.2590001 0 0 68 255
0.015253334 -0.36725336 1.2320001 0 0 68 255
0.017471429 -0.36457047 1.223 0 0 68 255
0.019800952 -0.36457047 1.223 0 0 68 255
0.021967622 -0.36188763 1.2140001 0 0 68 255
0.02428 -0.36188763 1.2140001 0 0 68 255
0.026504762 -0.36069524 1.21 0 0 68 255
0.028809523 -0.36069524 1.21 0 0 68 255
0.031114288 -0.36069524 1.21 0 0 68 255
0.033419047 -0.36069524 1.21 0 0 68 255
0.035723813 -0.36069524 1.21 0 0 68 255
0.037902862 -0.35950288 1.2060001 0 0 68 255
0.040200002 -0.35950288 1.2060001 0 0 68 255
0.044681903 -0.37798476 1.268 0 0 68 255
0.047097143 -0.37798476 1.268 0 0 68 255
0.049707618 -0.37947524 1.273 0 0 68 255
0.052132379 -0.37947524 1.273 0 0 68 255
0.054771435 -0.38096574 1.2780001 0 0 68 255
0.057205718 -0.38096574 1.2780001 0 0 68 255
-0.0036657148 -0.38001239 1.2830001 0 0 68 255
-0.0012171429 -0.37853146 1.2780001 0 0 68 255
0.0012123809 -0.37705049 1.273 0 0 68 255
0.0036371427 -0.37705049 1.273 0 0 68 255
0.0060380953 -0.37556952 1.268 0 0 68 255
0.0084533338 -0.37556952 1.268 0 0 68 255
0.010834286 -0.37438476 1.2640001 0 0 68 255
0.013095238 -0.3702381 1.25 0 0 68 255
0.015253334 -0.3649067 1.2320001 0 0 68 255
0.017471429 -0.36224097 1.223 0 0 68 255
0.019800952 -0.36224097 1.223 0 0 68 255
0.022058096 -0.36105624 1.2190001 0 0 68 255
0.024380002 -0.36105624 1.2190001 0 0 68 255
0.026592383 -0.35957527 1.2140001 0 0 68 255
0.028904764 -0.35957527 1.2140001 0 0 68 255
0.031114288 -0.35839048 1.21 0 0 68 255
0.033419047 -0.35839048 1.21 0 0 68 255
0.035723813 -0.35839048 1.21 0 0 68 255
0.037902862 -0.35720575 1.2060001 0 0 68 255
0.040200002 -0.35720575 1.2060001 0 0 68 255
0.044681903 -0.37556952 1.268 0 0 68 255
0.047097143 -0.37556952 1.268 0 0 68 255
0.049707618 -0.37705049 1.273 0 0 68 255
0.052132379 -0.37705049 1.273 0 0 68 255
0.054557141 -0.37705049 1.273 0 0 68 255
0.057205718 -0.37853146 1.2780001 0 0 68 255
0.059873335 -0.38001239 1.2830001 0 0 68 255
-0.003651429 -0.37609717 1.2780001 0 0 68 255
-0.0012171429 -0.37609717 1.2780001 0 0 68 255
0.0012123809 -0.37462571 1.273 0 0 68 255
0.0036228569 -0.37315428 1.268 0 0 68 255
0.0060380953 -0.37315428 1.268 0 0 68 255
0.0084266672 -0.37197715 1.2640001 0 0 68 255
0.010791428 -0.37050572 1.2590001 0 0 68 255
0.013095238 -0.36785713 1.25 0 0 68 255
0.015253334 -0.36256003 1.2320001 0 0 68 255
0.017471429 -0.35991144 1.223 0 0 68 255
0.019800952 -0.35991144 1.223 0 0 68 255
0.022058096 -0.35873431 1.2190001 0 0 68 255
0.024380002 -0.35873431 1.2190001 0 0 68 255
0.026592383 -0.35726288 1.2140001 0 0 68 255
0.028904764 -0.35726288 1.2140001 0 0 68 255
0.031114288 -0.35608572 1.21 0 0 68 255
0.033419047 -0.35608572 1.21 0 0 68 255
0.035723813 -0.35608572 1.21 0 0 68 255
0.037902862 -0.35490859 1.2060001 0 0 68 255
0.040200002 -0.35490859 1.2060001 0 0 68 255
0.044681903 -0.37315428 1.268 0 0 68 255
0.047097143 -0.37315428 1.268 0 0 68 255
0.049707618 -0.37462571 1.273 0 0 68 255
0.052132379 -0.37462571 1.273 0 0 68 255
0.054557141 -0.37462571 1.273 0 0 68 255
0.057205718 -0.37609717 1.2780001 0 0 68 255
0.059873335 -0.3775686 1.2830001 0 0 68 255
-0.003651429 -0.37366289 1.2780001 0 0 68 255
-0.0012123809 -0.37220097 1.273 0 0 68 255
0.0012076191 -0.37073904 1.268 0 0 68 255
0.0036228569 -0.37073904 1.268 0 0 68 255
0.0060380953 -0.37073904 1.268 0 0 68 255
0.0084266672 -0.36956951 1.2640001 0 0 68 255
0.010791428 -0.36810765 1.2590001 0 0 68 255
0.013000953 -0.36284479 1.2410001 0 0 68 255
0.015302857 -0.36138287 1.2360001 0 0 68 255
0.017528573 -0.35875145 1.2270001 0 0 68 255
0.019865716 -0.35875145 1.2270001 0 0 68 255
0.022130478 -0.35758194 1.223 0 0 68 255
0.024380002 -0.35641241 1.2190001 0 0 68 255
0.026592383 -0.35495049 1.2140001 0 0 68 255
0.028904764 -0.35495049 1.2140001 0 0 68 255
0.031217147 -0.35495049 1.2140001 0 0 68 255
0.033529524 -0.35495049 1.2140001 0 0 68 255
0.035723813 -0.35378096 1.21 0 0 68 255
0.037902862 -0.35261145 1.2060001 0 0 68 255
0.040200002 -0.35261145 1.2060001 0 0 68 255
0.044681903 -0.37073904 1.268 0 0 68 255
0.047282856 -0.37220097 1.273 0 0 68 255
0.049707618 -0.37220097 1.273 0 0 68 255
0.052132379 -0.37220097 1.273 0 0 68 255
0.054771435 -0.37366289 1.2780001 0 0 68 255
0.05742953 -0.37512481 1.2830001 0 0 68 255
0.060106672 -0.37658671 1.2880001 0 0 68 255
-0.003651429 -0.37122861 1.2780001 0 0 68 255
-0.0012123809 -0.36977619 1.273 0 0 68 255
0.0012076191 -0.3683238 1.268 0 0 68 255
0.0036228569 -0.3683238 1.268 0 0 68 255
0.0060380953 -0.3683238 1.268 0 0 68 255
0.0084266672 -0.36716193 1.2640001 0 0 68 255
0.010791428 -0.36570954 1.2590001 0 0 68 255
0.013000953 -0.36048096 1.2410001 0 0 68 255
0.015302857 -0.35902858 1.2360001 0 0 68 255
0.017600002 -0.3578667 1.2320001 0 0 68 255
0.019946668 -0.3578667 1.2320001 0 0 68 255
0.022202859 -0.35641432 1.2270001 0 0 68 255
0.024540002 -0.35641432 1.2270001 0 0 68 255
0.026789526 -0.35525239 1.223 0 0 68 255
0.029119048 -0.35525239 1.223 0 0 68 255
0.031345718 -0.35409051 1.2190001 0 0 68 255
0.03366762 -0.35409051 1.2190001 0 0 68 255
0.035989527 -0.35409051 1.2190001 0 0 68 255
0.038311433 -0.35409051 1.2190001 0 0 68 255
0.042133335 -0.36716193 1.2640001 0 0 68 255
0.044540953 -0.36716193 1.2640001 0 0 68 255
0.047097143 -0.3683238 1.268 0 0 68 255
0.049707618 -0.36977619 1.273 0 0 68 255
0.052132379 -0.36977619 1.273 0 0 68 255
0.054771435 -0.37122861 1.2780001 0 0 68 255
0.05742953 -0.37268099 1.2830001 0 0 68 255
-0.003651429 -0.36879432 1.2780001 0 0 68 255
-0.0012171429 -0.36879432 1.2780001 0 0 68 255
0.0012123809 -0.36735141 1.273 0 0 68 255
0.0036228569 -0.36590856 1.268 0 0 68 255
0.0060380953 -0.36590856 1.268 0 0 68 255
0.0084266672 -0.36475429 1.2640001 0 0 68 255
0.010791428 -0.36331144 1.2590001 0 0 68 255
0.01314762 -0.3621572 1.2550001 0 0 68 255
0.015364763 -0.35811716 1.2410001 0 0 68 255
0.017728573 -0.35811716 1.2410001 0 0 68 255
0.020011429 -0.35667431 1.2360001 0 0 68 255
0.022365715 -0.35667431 1.2360001 0 0 68 255
0.02472 -0.35667431 1.2360001 0 0 68 255
0.026986668 -0.35552001 1.2320001 0 0 68 255
0.029214289 -0.35407716 1.2270001 0 0 68 255
0.031551428 -0.35407716 1.2270001 0 0 68 255
0.033888575 -0.35407716 1.2270001 0 0 68 255
0.036107622 -0.35292286 1.223 0 0 68 255
0.038437143 -0.35292286 1.223 0 0 68 255
0.042133335 -0.36475429 1.2640001 0 0 68 255
0.044540953 -0.36475429 1.2640001 0 0 68 255
0.047097143 -0.36590856 1.268 0 0 68 255
0.049512379 -0.36590856 1.268 0 0 68 255
0.052132379 -0.36735141 1.273 0 0 68 255
0.054771435 -0.36879432 1.2780001 0 0 68 255
0.057653334 -0.37168002 1.2880001 0 0 68 255
-0.0036657148 -0.36779338 1.2830001 0 0 68 255
-0.0012171429 -0.36636004 1.2780001 0 0 68 255
0.0012123809 -0.36492667 1.273 0 0 68 255
0.0036228569 -0.36349332 1.268 0 0 68 255
0.0060380953 -0.36349332 1.268 0 0 68 255
0.0084266672 -0.36234668 1.2640001 0 0 68 255
0.010791428 -0.36091334 1.2590001 0 0 68 255
0.01314762 -0.35976669 1.2550001 0 0 68 255
0.01547619 -0.35833332 1.25 0 0 68 255
0.017728573 -0.35575333 1.2410001 0 0 68 255
0.020092381 -0.35575333 1.2410001 0 0 68 255
0.022365715 -0.35432002 1.2360001 0 0 68 255
0.02472 -0.35432002 1.2360001 0 0 68 255
0.027074287 -0.35432002 1.2360001 0 0 68 255
0.029428573 -0.35432002 1.2360001 0 0 68 255
0.031782858 -0.35432002 1.2360001 0 0 68 255
0.034137145 -0.35432002 1.2360001 0 0 68 255
0.036757145 -0.35689998 1.245 0 0 68 255
0.039568573 -0.36091334 1.2590001 0 0 68 255
0.042133335 -0.36234668 1.2640001 0 0 68 255
0.044540953 -0.36234668 1.2640001 0 0 68 255
0.047097143 -0.36349332 1.268 0 0 68 255
0.049512379 -0.36349332 1.268 0 0 68 255
0.052132379 -0.36492667 1.273 0 0 68 255
0.054771435 -0.36636004 1.2780001 0 0 68 255
-0.0036657148 -0.36534956 1.2830001 0 0 68 255
-0.0012171429 -0.36392576 1.2780001 0 0 68 255
0.0012123809 -0.36250192 1.273 0 0 68 255
0.0036228569 -0.36107808 1.268 0 0 68 255
0.0060380953 -0.36107808 1.268 0 0 68 255
0.0084266672 -0.35993904 1.2640001 0 0 68 255
0.010791428 -0.35851523 1.2590001 0 0 68 255
0.01314762 -0.35737622 1.2550001 0 0 68 255
0.01547619 -0.35595238 1.25 0 0 68 255
0.017857142 -0.35595238 1.25 0 0 68 255
0.020092381 -0.35338953 1.2410001 0 0 68 255
0.022456191 -0.35338953 1.2410001 0 0 68 255
0.02482 -0.35338953 1.2410001 0 0 68 255
0.02718381 -0.35338953 1.2410001 0 0 68 255
0.029547621 -0.35338953 1.2410001 0 0 68 255
0.031911429 -0.35338953 1.2410001 0 0 68 255
0.034275241 -0.35338953 1.2410001 0 0 68 255
0.03690476 -0.35595238 1.25 0 0 68 255
0.039568573 -0.35851523 1.2590001 0 0 68 255
0.042133335 -0.35993904 1.2640001 0 0 68 255
0.044540953 -0.35993904 1.2640001 0 0 68 255
0.047097143 -0.36107808 1.268 0 0 68 255
0.049512379 -0.36107808 1.268 0 0 68 255
0.052132379 -0.36250192 1.273 0 0 68 255
0.054557141 -0.36250192 1.273 0 0 68 255
-0.003651429 -0.36149147 1.2780001 0 0 68 255
-0.0012171429 -0.36149147 1.2780001 0 0 68 255
0.0012076191 -0.35866287 1.268 0 0 68 255
0.0036228569 -0.35866287 1.268 0 0 68 255
0.0060380953 -0.35866287 1.268 0 0 68 255
0.0084266672 -0.35753146 1.2640001 0 0 68 255
0.010834286 -0.35753146 1.2640001 0 0 68 255
0.013189524 -0.35611713 1.2590001 0 0 68 255
0.015538097 -0.35498574 1.2550001 0 0 68 255
0.017857142 -0.35357141 1.25 0 0 68 255
0.020238096 -0.35357141 1.25 0 0 68 255
0.022528572 -0.35215715 1.245 0 0 68 255
0.024900001 -0.35215715 1.245 0 0 68 255
0.027271429 -0.35215715 1.245 0 0 68 255
0.029642858 -0.35215715 1.245 0 0 68 255
0.032014288 -0.35215715 1.245 0 0 68 255
0.034523807 -0.35357141 1.25 0 0 68 255
0.037052382 -0.35498574 1.2550001 0 0 68 255
0.039568573 -0.35611713 1.2590001 0 0 68 255
0.042133335 -0.35753146 1.2640001 0 0 68 255
0.044540953 -0.35753146 1.2640001 0 0 68 255
0.046948571 -0.35753146 1.2640001 0 0 68 255
0.049512379 -0.35866287 1.268 0 0 68 255
0.052132379 -0.36007714 1.273 0 0 68 255
0.054557141 -0.36007714 1.273 0 0 68 255
-0.003651429 -0.35905719 1.2780001 0 0 68 255
-0.0012171429 -0.35905719 1.2780001 0 0 68 255
0.0012076191 -0.3562476 1.268 0 0 68 255
0.0036228569 -0.3562476 1.268 0 0 68 255
0.0060380953 -0.3562476 1.268 0 0 68 255
0.0084266672 -0.35512382 1.2640001 0 0 68 255
0.010834286 -0.35512382 1.2640001 0 0 68 255
0.013189524 -0.35371909 1.2590001 0 0 68 255
0.015538097 -0.35259527 1.2550001 0 0 68 255
0.017928572 -0.35259527 1.2550001 0 0 68 255
0.02031905 -0.35259527 1.2550001 0 0 68 255
0.022619048 -0.35119048 1.25 0 0 68 255
0.025 -0.35119048 1.25 0 0 68 255
0.027380953 -0.35119048 1.25 0 0 68 255
0.029761905 -0.35119048 1.25 0 0 68 255
0.032142855 -0.35119048 1.25 0 0 68 255
0.034661908 -0.35259527 1.2550001 0 0 68 255
0.037170477 -0.35371909 1.2590001 0 0 68 255
0.039568573 -0.35371909 1.2590001 0 0 68 255
0.042133335 -0.35512382 1.2640001 0 0 68 255
0.044540953 -0.35512382 1.2640001 0 0 68 255
0.046948571 -0.35512382 1.2640001 0 0 68 255
0.049356192 -0.35512382 1.2640001 0 0 68 255
0.051927619 -0.3562476 1.268 0 0 68 255
0.054557141 -0.35765237 1.273 0 0 68 255
-0.003651429 -0.3566229 1.2780001 0 0 68 255
-0.0012171429 -0.3566229 1.2780001 0 0 68 255
0.0012076191 -0.35383236 1.268 0 0 68 255
0.0036228569 -0.35383236 1.268 0 0 68 255
0.0060190479 -0.35271621 1.2640001 0 0 68 255
0.0084266672 -0.35271621 1.2640001 0 0 68 255
0.010834286 -0.35271621 1.2640001 0 0 68 255
0.013241905 -0.35271621 1.2640001 0 0 68 255
0.015649525 -0.35271621 1.2640001 0 0 68 255
0.017985715 -0.35132098 1.2590001 0 0 68 255
0.020383811 -0.35132098 1.2590001 0 0 68 255
0.022709524 -0.3502048 1.2550001 0 0 68 255
0.025100002 -0.3502048 1.2550001 0 0 68 255
0.027490478 -0.3502048 1.2550001 0 0 68 255
0.029880956 -0.3502048 1.2550001 0 0 68 255
0.03227143 -0.3502048 1.2550001 0 0 68 255
0.034661908 -0.3502048 1.2550001 0 0 68 255
0.037170477 -0.35132098 1.2590001 0 0 68 255
0.039568573 -0.35132098 1.2590001 0 0 68 255
0.042133335 -0.35271621 1.2640001 0 0 68 255
0.044364765 -0.35132098 1.2590001 0 0 68 255
0.046762858 -0.35132098 1.2590001 0 0 68 255
0.049160954 -0.35132098 1.2590001 0 0 68 255
0.05176381 -0.35271621 1.2640001 0 0 68 255
0.054342858 -0.35383236 1.268 0 0 68 255
-0.003651429 -0.35418862 1.2780001 0 0 68 255
-0.0012171429 -0.35418862 1.2780001 0 0 68 255
0.0012076191 -0.35141715 1.268 0 0 68 255
0.0036114289 -0.35030857 1.2640001 0 0 68 255
0.0060190479 -0.35030857 1.2640001 0 0 68 255
0.0084266672 -0.35030857 1.2640001 0 0 68 255
0.010834286 -0.35030857 1.2640001 0 0 68 255
0.013241905 -0.35030857 1.2640001 0 0 68 255
0.015649525 -0.35030857 1.2640001 0 0 68 255
0.018057143 -0.35030857 1.2640001 0 0 68 255
0.020464763 -0.35030857 1.2640001 0 0 68 255
0.022781907 -0.34892288 1.2590001 0 0 68 255
0.025180001 -0.34892288 1.2590001 0 0 68 255
0.027578095 -0.34892288 1.2590001 0 0 68 255
0.029976193 -0.34892288 1.2590001 0 0 68 255
0.032374285 -0.34892288 1.2590001 0 0 68 255
0.034772381 -0.34892288 1.2590001 0 0 68 255
0.037170477 -0.34892288 1.2590001 0 0 68 255
0.039568573 -0.34892288 1.2590001 0 0 68 255
0.041966669 -0.34892288 1.2590001 0 0 68 255
0.044364765 -0.34892288 1.2590001 0 0 68 255
0.046762858 -0.34892288 1.2590001 0 0 68 255
0.049160954 -0.34892288 1.2590001 0 0 68 255
0.05176381 -0.35030857 1.2640001 0 0 68 255
0.054342858 -0.35141715 1.268 0 0 68 255
-0.003651429 -0.35175431 1.2780001 0 0 68 255
-0.0012123809 -0.3503781 1.273 0 0 68 255
0.0012076191 -0.34900188 1.268 0 0 68 255
0.0036114289 -0.34790096 1.2640001 0 0 68 255
0.0060190479 -0.34790096 1.2640001 0 0 68 255
0.0084266672 -0.34790096 1.2640001 0 0 68 255
0.010834286 -0.34790096 1.2640001 0 0 68 255
0.013241905 -0.34790096 1.2640001 0 0 68 255
0.015649525 -0.34790096 1.2640001 0 0 68 255
0.018057143 -0.34790096 1.2640001 0 0 68 255
0.020464763 -0.34790096 1.2640001 0 0 68 255
0.022781907 -0.34652478 1.2590001 0 0 68 255
0.025180001 -0.34652478 1.2590001 0 0 68 255
0.027578095 -0.34652478 1.2590001 0 0 68 255
0.029976193 -0.34652478 1.2590001 0 0 68 255
0.032374285 -0.34652478 1.2590001 0 0 68 255
0.034772381 -0.34652478 1.2590001 0 0 68 255
0.037170477 -0.34652478 1.2590001 0 0 68 255
0.039568573 -0.34652478 1.2590001 0 0 68 255
0.041966669 -0.34652478 1.2590001 0 0 68 255
0.044364765 -0.34652478 1.2590001 0 0 68 255
0.046762858 -0.34652478 1.2590001 0 0 68 255
0.049160954 -0.34652478 1.2590001 0 0 68 255
0.05155905 -0.34652478 1.2590001 0 0 68 255
0.054171428 -0.34790096 1.2640001 0 0 68 255
-0.003651429 -0.34932002 1.2780001 0 0 68 255
-0.0012123809 -0.34795335 1.273 0 0 68 255
0.0012076191 -0.34658667 1.268 0 0 68 255
0.0035971431 -0.34412667 1.2590001 0 0 68 255
0.0059952382 -0.34412667 1.2590001 0 0 68 255
0.0083933342 -0.34412667 1.2590001 0 0 68 255
0.010791428 -0.34412667 1.2590001 0 0 68 255
0.013189524 -0.34412667 1.2590001 0 0 68 255
0.015649525 -0.34549335 1.2640001 0 0 68 255
0.018057143 -0.34549335 1.2640001 0 0 68 255
0.020464763 -0.34549335 1.2640001 0 0 68 255
0.022872381 -0.34549335 1.2640001 0 0 68 255
0.025280001 -0.34549335 1.2640001 0 0 68 255
0.027578095 -0.34412667 1.2590001 0 0 68 255
0.029976193 -0.34412667 1.2590001 0 0 68 255
0.032374285 -0.34412667 1.2590001 0 0 68 255
0.034772381 -0.34412667 1.2590001 0 0 68 255
0.037170477 -0.34412667 1.2590001 0 0 68 255
0.039568573 -0.34412667 1.2590001 0 0 68 255
0.041966669 -0.34412667 1.2590001 0 0 68 255
0.044364765 -0.34412667 1.2590001 0 0 68 255
0.046762858 -0.34412667 1.2590001 0 0 68 255
0.049160954 -0.34412667 1.2590001 0 0 68 255
0.05155905 -0.34412667 1.2590001 0 0 68 255
0.054171428 -0.34549335 1.2640001 0 0 68 255
-0.003651429 -0.34688574 1.2780001 0 0 68 255
-0.0012123809 -0.34552857 1.273 0 0 68 255
0.0012076191 -0.34417143 1.268 0 0 68 255
0.0035971431 -0.3417286 1.2590001 0 0 68 255
0.0059952382 -0.3417286 1.2590001 0 0 68 255
0.0083933342 -0.3417286 1.2590001 0 0 68 255
0.010791428 -0.3417286 1.2590001 0 0 68 255
0.013189524 -0.3417286 1.2590001 0 0 68 255
0.015649525 -0.34308574 1.2640001 0 0 68 255
0.018057143 -0.34308574 1.2640001 0 0 68 255
0.020464763 -0.34308574 1.2640001 0 0 68 255
0.022781907 -0.3417286 1.2590001 0 0 68 255
0.025180001 -0.3417286 1.2590001 0 0 68 255
0.027578095 -0.3417286 1.2590001 0 0 68 255
0.029976193 -0.3417286 1.2590001 0 0 68 255
0.03227143 -0.34064287 1.2550001 0 0 68 255
0.034661908 -0.34064287 1.2550001 0 0 68 255
0.037052382 -0.34064287 1.2550001 0 0 68 255
0.03944286 -0.34064287 1.2550001 0 0 68 255
0.041833337 -0.34064287 1.2550001 0 0 68 255
0.044223815 -0.34064287 1.2550001 0 0 68 255
0.046614289 -0.34064287 1.2550001 0 0 68 255
0.049004767 -0.34064287 1.2550001 0 0 68 255
0.05155905 -0.3417286 1.2590001 0 0 68 255
0.053957146 -0.3417286 1.2590001 0 0 68 255
-0.003651429 -0.34445146 1.2780001 0 0 68 255
-0.0012123809 -0.3431038 1.273 0 0 68 255
0.0012076191 -0.34175619 1.268 0 0 68 255
0.0036114289 -0.3406781 1.2640001 0 0 68 255
0.0059952382 -0.33933049 1.2590001 0 0 68 255
0.0083933342 -0.33933049 1.2590001 0 0 68 255
0.010791428 -0.33933049 1.2590001 0 0 68 255
0.013189524 -0.33933049 1.2590001 0 0 68 255
0.015649525 -0.3406781 1.2640001 0 0 68 255
0.018057143 -0.3406781 1.2640001 0 0 68 255
0.020464763 -0.3406781 1.2640001 0 0 68 255
0.022781907 -0.33933049 1.2590001 0 0 68 255
0.025180001 -0.33933049 1.2590001 0 0 68 255
0.027578095 -0.33933049 1.2590001 0 0 68 255
0.029976193 -0.33933049 1.2590001 0 0 68 255
0.03227143 -0.33825243 1.2550001 0 0 68 255
0.034661908 -0.33825243 1.2550001 0 0 68 255
0.037052382 -0.33825243 1.2550001 0 0 68 255
0.03944286 -0.33825243 1.2550001 0 0 68 255
0.041833337 -0.33825243 1.2550001 0 0 68 255
0.044223815 -0.33825243 1.2550001 0 0 68 255
0.046614289 -0.33825243 1.2550001 0 0 68 255
0.049004767 -0.33825243 1.2550001 0 0 68 255
0.05155905 -0.33933049 1.2590001 0 0 68 255
0.053957146 -0.33933049 1.2590001 0 0 68 255
-0.003651429 -0.34201717 1.2780001 0 0 68 255
-0.0012123809 -0.34067905 1.273 0 0 68 255
0.0012076191 -0.33934096 1.268 0 0 68 255
0.0036114289 -0.33827049 1.2640001 0 0 68 255
0.0060190479 -0.33827049 1.2640001 0 0 68 255
0.0084266672 -0.33827049 1.2640001 0 0 68 255
0.010834286 -0.33827049 1.2640001 0 0 68 255
0.013241905 -0.33827049 1.2640001 0 0 68 255
0.015649525 -0.33827049 1.2640001 0 0 68 255
0.018057143 -0.33827049 1.2640001 0 0 68 255
0.020464763 -0.33827049 1.2640001 0 0 68 255
0.022872381 -0.33827049 1.2640001 0 0 68 255
0.025280001 -0.33827049 1.2640001 0 0 68 255
0.027578095 -0.33693239 1.2590001 0 0 68 255
0.029976193 -0.33693239 1.2590001 0 0 68 255
0.032374285 -0.33693239 1.2590001 0 0 68 255
0.034772381 -0.33693239 1.2590001 0 0 68 255
0.037170477 -0.33693239 1.2590001 0 0 68 255
0.039568573 -0.33693239 1.2590001 0 0 68 255
0.041966669 -0.33693239 1.2590001 0 0 68 255
0.044223815 -0.33586192 1.2550001 0 0 68 255
0.046614289 -0.33586192 1.2550001 0 0 68 255
0.049160954 -0.33693239 1.2590001 0 0 68 255
0.05155905 -0.33693239 1.2590001 0 0 68 255
0.054342858 -0.33934096 1.268 0 0 68 255
-0.003651429 -0.33958289 1.2780001 0 0 68 255
-0.0012123809 -0.33825427 1.273 0 0 68 255
0.0012123809 -0.33825427 1.273 0 0 68 255
0.0036228569 -0.33692572 1.268 0 0 68 255
0.0060190479 -0.33586285 1.2640001 0 0 68 255
0.0084266672 -0.33586285 1.2640001 0 0 68 255
0.010834286 -0.33586285 1.2640001 0 0 68 255
0.013241905 -0.33586285 1.2640001 0 0 68 255
0.015649525 -0.33586285 1.2640001 0 0 68 255
0.018057143 -0.33586285 1.2640001 0 0 68 255
0.020464763 -0.33586285 1.2640001 0 0 68 255
0.022872381 -0.33586285 1.2640001 0 0 68 255
0.025280001 -0.33586285 1.2640001 0 0 68 255
0.027687619 -0.33586285 1.2640001 0 0 68 255
0.029976193 -0.33453429 1.2590001 0 0 68 255
0.032374285 -0.33453429 1.2590001 0 0 68 255
0.034772381 -0.33453429 1.2590001 0 0 68 255
0.037170477 -0.33453429 1.2590001 0 0 68 255
0.039568573 -0.33453429 1.2590001 0 0 68 255
0.041966669 -0.33453429 1.2590001 0 0 68 255
0.044364765 -0.33453429 1.2590001 0 0 68 255
0.046762858 -0.33453429 1.2590001 0 0 68 255
0.049160954 -0.33453429 1.2590001 0 0 68 255
0.05176381 -0.33586285 1.2640001 0 0 68 255
0.054557141 -0.33825427 1.273 0 0 68 255
-0.003651429 -0.33714861 1.2780001 0 0 68 255
-0.0012123809 -0.33582953 1.273 0 0 68 255
0.0012123809 -0.33582953 1.273 0 0 68 255
0.0036228569 -0.33451048 1.268 0 0 68 255
0.0060190479 -0.33345526 1.2640001 0 0 68 255
0.0084266672 -0.33345526 1.2640001 0 0 68 255
0.010834286 -0.33345526 1.2640001 0 0 68 255
0.013241905 -0.33345526 1.2640001 0 0 68 255
0.015699048 -0.33451048 1.268 0 0 68 255
0.018114286 -0.33451048 1.268 0 0 68 255
0.020464763 -0.33345526 1.2640001 0 0 68 255
0.022872381 -0.33345526 1.2640001 0 0 68 255
0.025280001 -0.33345526 1.2640001 0 0 68 255
0.027687619 -0.33345526 1.2640001 0 0 68 255
0.03009524 -0.33345526 1.2640001 0 0 68 255
0.03250286 -0.33345526 1.2640001 0 0 68 255
0.034910478 -0.33345526 1.2640001 0 0 68 255
0.037318096 -0.33345526 1.2640001 0 0 68 255
0.039725717 -0.33345526 1.2640001 0 0 68 255
0.042133335 -0.33345526 1.2640001 0 0 68 255
0.044364765 -0.33213618 1.2590001 0 0 68 255
0.046762858 -0.33213618 1.2590001 0 0 68 255
0.049356192 -0.33345526 1.2640001 0 0 68 255
0.05176381 -0.33345526 1.2640001 0 0 68 255
0.054557141 -0.33582953 1.273 0 0 68 255
-0.003651429 -0.33471432 1.2780001 0 0 68 255
-0.0012123809 -0.33340478 1.273 0 0 68 255
0.0012123809 -0.33340478 1.273 0 0 68 255
0.0036228569 -0.33209524 1.268 0 0 68 255
0.0060380953 -0.33209524 1.268 0 0 68 255
0.0084533338 -0.33209524 1.268 0 0 68 255
0.010868571 -0.33209524 1.268 0 0 68 255
0.01328381 -0.33209524 1.268 0 0 68 255
0.015699048 -0.33209524 1.268 0 0 68 255
0.018114286 -0.33209524 1.268 0 0 68 255
0.020529523 -0.33209524 1.268 0 0 68 255
0.022944763 -0.33209524 1.268 0 0 68 255
0.025280001 -0.33104762 1.2640001 0 0 68 255
0.027687619 -0.33104762 1.2640001 0 0 68 255
0.03009524 -0.33104762 1.2640001 0 0 68 255
0.03250286 -0.33104762 1.2640001 0 0 68 255
0.034910478 -0.33104762 1.2640001 0 0 68 255
0.037318096 -0.33104762 1.2640001 0 0 68 255
0.039725717 -0.33104762 1.2640001 0 0 68 255
0.042266667 -0.33209524 1.268 0 0 68 255
0.044540953 -0.33104762 1.2640001 0 0 68 255
0.046948571 -0.33104762 1.2640001 0 0 68 255
0.049512379 -0.33209524 1.268 0 0 68 255
0.051927619 -0.33209524 1.268 0 0 68 255
0.054557141 -0.33340478 1.273 0 0 68 255
-0.0012171429 -0.33228004 1.2780001 0 0 68 255
0.0012123809 -0.33098 1.273 0 0 68 255
0.0036371427 -0.33098 1.273 0 0 68 255
0.0060380953 -0.32968 1.268 0 0 68 255
0.0084533338 -0.32968 1.268 0 0 68 255
0.010868571 -0.32968 1.268 0 0 68 255
0.013336191 -0.33098 1.273 0 0 68 255
0.015760953 -0.33098 1.273 0 0 68 255
0.018185714 -0.33098 1.273 0 0 68 255
0.020610476 -0.33098 1.273 0 0 68 255
0.023035238 -0.33098 1.273 0 0 68 255
0.025359999 -0.32968 1.268 0 0 68 255
0.027775237 -0.32968 1.268 0 0 68 255
0.030190477 -0.32968 1.268 0 0 68 255
0.032605715 -0.32968 1.268 0 0 68 255
0.035020951 -0.32968 1.268 0 0 68 255
0.037436187 -0.32968 1.268 0 0 68 255
0.039851431 -0.32968 1.268 0 0 68 255
0.042266667 -0.32968 1.268 0 0 68 255
0.044681903 -0.32968 1.268 0 0 68 255
0.047097143 -0.32968 1.268 0 0 68 255
0.049512379 -0.32968 1.268 0 0 68 255
0.052132379 -0.33098 1.273 0 0 68 255
0.054771435 -0.33228004 1.2780001 0 0 68 255
0.0060857143 -0.32984576 1.2780001 0 0 68 255
0.0085200006 -0.32984576 1.2780001 0 0 68 255
0.010954286 -0.32984576 1.2780001 0 0 68 255
0.013336191 -0.32855523 1.273 0 0 68 255
0.015760953 -0.32855523 1.273 0 0 68 255
0.018185714 -0.32855523 1.273 0 0 68 255
0.020610476 -0.32855523 1.273 0 0 68 255
0.023035238 -0.32855523 1.273 0 0 68 255
0.025459999 -0.32855523 1.273 0 0 68 255
0.027884761 -0.32855523 1.273 0 0 68 255
0.030309524 -0.32855523 1.273 0 0 68 255
0.032734282 -0.32855523 1.273 0 0 68 255
0.035159048 -0.32855523 1.273 0 0 68 255
0.037583809 -0.32855523 1.273 0 0 68 255
0.040008571 -0.32855523 1.273 0 0 68 255
0.042433333 -0.32855523 1.273 0 0 68 255
0.044858098 -0.32855523 1.273 0 0 68 255
0.047282856 -0.32855523 1.273 0 0 68 255
0.049707618 -0.32855523 1.273 0 0 68 255
0.052337147 -0.32984576 1.2780001 0 0 68 255
0.035297148 -0.32741147 1.2780001 0 0 68 255
0.037731431 -0.32741147 1.2780001 0 0 68 255
0.040165719 -0.32741147 1.2780001 0 0 68 255
0.042600002 -0.32741147 1.2780001 0 0 68 255
0.045034289 -0.32741147 1.2780001 0 0 68 255
0.047468573 -0.32741147 1.2780001 0 0 68 255
0.049902864 -0.32741147 1.2780001 0 0 68 255
0 0 0 1 0 0 0 1 0 0 0 1 0 0 0 0 0 650 1 0 0
