ply
format ascii 1.0
comment PCL generated
element vertex 507
property float x
property float y
property float z
property uchar red
property uchar green
property uchar blue
property uchar alpha
element camera 1
property float view_px
property float view_py
property float view_pz
property float x_axisx
property float x_axisy
property float x_axisz
property float y_axisx
property float y_axisy
property float y_axisz
property float z_axisx
property float z_axisy
property float z_axisz
property float focal
property float scalex
property float scaley
property float centerx
property float centery
property int viewportx
property int viewporty
property float k1
property float k2
end_header
-0.20455715 -0.22888285 1.161 158 147 0 255
-0.20234571 -0.22888285 1.161 158 147 0 255
-0.20082383 -0.22967143 1.1650001 158 147 0 255
-0.19860478 -0.22967143 1.1650001 158 147 0 255
-0.19638573 -0.22967143 1.1650001 158 147 0 255
-0.19416668 -0.22967143 1.1650001 158 147 0 255
-0.20676857 -0.22667143 1.161 158 147 0 255
-0.20455715 -0.22667143 1.161 158 147 0 255
-0.20234571 -0.22667143 1.161 158 147 0 255
-0.20082383 -0.2274524 1.1650001 158 147 0 255
-0.19860478 -0.2274524 1.1650001 158 147 0 255
-0.19638573 -0.2274524 1.1650001 158 147 0 255
-0.19416668 -0.2274524 1.1650001 158 147 0 255
-0.19128856 -0.22667143 1.161 158 147 0 255
-0.18907715 -0.22667143 1.161 158 147 0 255
-0.2097 -0.22523335 1.1650001 158 147 0 255
-0.20676857 -0.22445999 1.161 158 147 0 255
-0.20455715 -0.22445999 1.161 158 147 0 255
-0.20234571 -0.22445999 1.161 158 147 0 255
-0.20082383 -0.22523335 1.1650001 158 147 0 255
-0.19860478 -0.22523335 1.1650001 158 147 0 255
-0.19638573 -0.22523335 1.1650001 158 147 0 255
-0.19416668 -0.22523335 1.1650001 158 147 0 255
-0.19128856 -0.22445999 1.161 158 147 0 255
-0.18907715 -0.22445999 1.161 158 147 0 255
-0.18750954 -0.22523335 1.1650001 158 147 0 255
-0.2097 -0.22301431 1.1650001 158 147 0 255
-0.20748097 -0.22301431 1.1650001 158 147 0 255
-0.20526192 -0.22301431 1.1650001 158 147 0 255
-0.20304286 -0.22301431 1.1650001 158 147 0 255
-0.20082383 -0.22301431 1.1650001 158 147 0 255
-0.19860478 -0.22301431 1.1650001 158 147 0 255
-0.19638573 -0.22301431 1.1650001 158 147 0 255
-0.19416668 -0.22301431 1.1650001 158 147 0 255
-0.19194762 -0.22301431 1.1650001 158 147 0 255
-0.18972859 -0.22301431 1.1650001 158 147 0 255
-0.18750954 -0.22301431 1.1650001 158 147 0 255
-0.18529049 -0.22301431 1.1650001 158 147 0 255
-0.2097 -0.22079526 1.1650001 158 147 0 255
-0.20748097 -0.22079526 1.1650001 158 147 0 255
-0.20526192 -0.22079526 1.1650001 158 147 0 255
-0.20374 -0.22155334 1.169 158 147 0 255
-0.20082383 -0.22079526 1.1650001 158 147 0 255
-0.19860478 -0.22079526 1.1650001 158 147 0 255
-0.19638573 -0.22079526 1.1650001 158 147 0 255
-0.19416668 -0.22079526 1.1650001 158 147 0 255
-0.19194762 -0.22079526 1.1650001 158 147 0 255
-0.18972859 -0.22079526 1.1650001 158 147 0 255
-0.18750954 -0.22079526 1.1650001 158 147 0 255
-0.18529049 -0.22079526 1.1650001 158 147 0 255
-0.18307143 -0.22079526 1.1650001 158 147 0 255
-0.21264668 -0.21932666 1.169 158 147 0 255
-0.2097 -0.21857621 1.1650001 158 147 0 255
-0.20748097 -0.21857621 1.1650001 158 147 0 255
-0.20526192 -0.21857621 1.1650001 158 147 0 255
-0.20374 -0.21932666 1.169 158 147 0 255
-0.20082383 -0.21857621 1.1650001 158 147 0 255
-0.19860478 -0.21857621 1.1650001 158 147 0 255
-0.19706 -0.21932666 1.169 158 147 0 255
-0.19483334 -0.21932666 1.169 158 147 0 255
-0.19260666 -0.21932666 1.169 158 147 0 255
-0.19038001 -0.21932666 1.169 158 147 0 255
-0.18750954 -0.21857621 1.1650001 158 147 0 255
-0.18529049 -0.21857621 1.1650001 158 147 0 255
-0.18307143 -0.21857621 1.1650001 158 147 0 255
-0.18147334 -0.21932666 1.169 158 147 0 255
-0.21487333 -0.21709999 1.169 158 147 0 255
-0.21264668 -0.21709999 1.169 158 147 0 255
-0.2097 -0.21635716 1.1650001 158 147 0 255
-0.20748097 -0.21635716 1.1650001 158 147 0 255
-0.20526192 -0.21635716 1.1650001 158 147 0 255
-0.20374 -0.21709999 1.169 158 147 0 255
-0.20082383 -0.21635716 1.1650001 158 147 0 255
-0.19860478 -0.21635716 1.1650001 158 147 0 255
-0.19706 -0.21709999 1.169 158 147 0 255
-0.19483334 -0.21709999 1.169 158 147 0 255
-0.19260666 -0.21709999 1.169 158 147 0 255
-0.19038001 -0.21709999 1.169 158 147 0 255
-0.18750954 -0.21635716 1.1650001 158 147 0 255
-0.18529049 -0.21635716 1.1650001 158 147 0 255
-0.18307143 -0.21635716 1.1650001 158 147 0 255
-0.18147334 -0.21709999 1.169 158 147 0 255
-0.17924666 -0.21709999 1.169 158 147 0 255
-0.21709999 -0.21487333 1.169 158 147 0 255
-0.21487333 -0.21487333 1.169 158 147 0 255
-0.21264668 -0.21487333 1.169 158 147 0 255
-0.2097 -0.21413811 1.1650001 158 147 0 255
-0.20748097 -0.21413811 1.1650001 158 147 0 255
-0.20526192 -0.21413811 1.1650001 158 147 0 255
-0.20304286 -0.21413811 1.1650001 158 147 0 255
-0.20082383 -0.21413811 1.1650001 158 147 0 255
-0.19860478 -0.21413811 1.1650001 158 147 0 255
-0.19638573 -0.21413811 1.1650001 158 147 0 255
-0.19483334 -0.21487333 1.169 158 147 0 255
-0.19260666 -0.21487333 1.169 158 147 0 255
-0.19038001 -0.21487333 1.169 158 147 0 255
-0.18750954 -0.21413811 1.1650001 158 147 0 255
-0.18529049 -0.21413811 1.1650001 158 147 0 255
-0.18370001 -0.21487333 1.169 158 147 0 255
-0.18147334 -0.21487333 1.169 158 147 0 255
-0.17924666 -0.21487333 1.169 158 147 0 255
-0.22007716 -0.2133743 1.1730001 158 147 0 255
-0.21709999 -0.21264668 1.169 158 147 0 255
-0.21487333 -0.21264668 1.169 158 147 0 255
-0.21264668 -0.21264668 1.169 158 147 0 255
-0.2097 -0.21191905 1.1650001 158 147 0 255
-0.20748097 -0.21191905 1.1650001 158 147 0 255
-0.20526192 -0.21191905 1.1650001 158 147 0 255
-0.20304286 -0.21191905 1.1650001 158 147 0 255
-0.20082383 -0.21191905 1.1650001 158 147 0 255
-0.19860478 -0.21191905 1.1650001 158 147 0 255
-0.19638573 -0.21191905 1.1650001 158 147 0 255
-0.19416668 -0.21191905 1.1650001 158 147 0 255
-0.19260666 -0.21264668 1.169 158 147 0 255
-0.19038001 -0.21264668 1.169 158 147 0 255
-0.18815334 -0.21264668 1.169 158 147 0 255
-0.18592668 -0.21264668 1.169 158 147 0 255
-0.18370001 -0.21264668 1.169 158 147 0 255
-0.18147334 -0.21264668 1.169 158 147 0 255
-0.17924666 -0.21264668 1.169 158 147 0 255
-0.17762573 -0.2133743 1.1730001 158 147 0 255
-0.22231144 -0.21114002 1.1730001 158 147 0 255
-0.22007716 -0.21114002 1.1730001 158 147 0 255
-0.21784288 -0.21114002 1.1730001 158 147 0 255
-0.21487333 -0.21042001 1.169 158 147 0 255
-0.21264668 -0.21042001 1.169 158 147 0 255
-0.2097 -0.2097 1.1650001 158 147 0 255
-0.20748097 -0.2097 1.1650001 158 147 0 255
-0.20526192 -0.2097 1.1650001 158 147 0 255
-0.20304286 -0.2097 1.1650001 158 147 0 255
-0.20082383 -0.2097 1.1650001 158 147 0 255
-0.19860478 -0.2097 1.1650001 158 147 0 255
-0.19638573 -0.2097 1.1650001 158 147 0 255
-0.19416668 -0.2097 1.1650001 158 147 0 255
-0.19194762 -0.2097 1.1650001 158 147 0 255
-0.19038001 -0.21042001 1.169 158 147 0 255
-0.18815334 -0.21042001 1.169 158 147 0 255
-0.18592668 -0.21042001 1.169 158 147 0 255
-0.18370001 -0.21042001 1.169 158 147 0 255
-0.18209431 -0.21114002 1.1730001 158 147 0 255
-0.17986001 -0.21114002 1.1730001 158 147 0 255
-0.17762573 -0.21114002 1.1730001 158 147 0 255
-0.17539144 -0.21114002 1.1730001 158 147 0 255
-0.22607717 -0.21033049 1.1810001 158 147 0 255
-0.22231144 -0.20890573 1.1730001 158 147 0 255
-0.22007716 -0.20890573 1.1730001 158 147 0 255
-0.21784288 -0.20890573 1.1730001 158 147 0 255
-0.21487333 -0.20819335 1.169 158 147 0 255
-0.21264668 -0.20819335 1.169 158 147 0 255
-0.2097 -0.20748097 1.1650001 158 147 0 255
-0.20748097 -0.20748097 1.1650001 158 147 0 255
-0.20526192 -0.20748097 1.1650001 158 147 0 255
-0.20304286 -0.20748097 1.1650001 158 147 0 255
-0.20082383 -0.20748097 1.1650001 158 147 0 255
-0.19860478 -0.20748097 1.1650001 158 147 0 255
-0.19638573 -0.20748097 1.1650001 158 147 0 255
-0.19416668 -0.20748097 1.1650001 158 147 0 255
-0.19194762 -0.20748097 1.1650001 158 147 0 255
-0.18972859 -0.20748097 1.1650001 158 147 0 255
-0.18750954 -0.20748097 1.1650001 158 147 0 255
-0.18592668 -0.20819335 1.169 158 147 0 255
-0.18370001 -0.20819335 1.169 158 147 0 255
-0.18147334 -0.20819335 1.169 158 147 0 255
-0.17924666 -0.20819335 1.169 158 147 0 255
-0.17702 -0.20819335 1.169 158 147 0 255
-0.17479333 -0.20819335 1.169 158 147 0 255
-0.22607717 -0.20808096 1.1810001 158 147 0 255
-0.22306953 -0.2073762 1.177 158 147 0 255
-0.22007716 -0.20667145 1.1730001 158 147 0 255
-0.21784288 -0.20667145 1.1730001 158 147 0 255
-0.21487333 -0.20596667 1.169 158 147 0 255
-0.21264668 -0.20596667 1.169 158 147 0 255
-0.2097 -0.20526192 1.1650001 158 147 0 255
-0.20748097 -0.20526192 1.1650001 158 147 0 255
-0.20455715 -0.20455715 1.161 158 147 0 255
-0.20234571 -0.20455715 1.161 158 147 0 255
-0.20013429 -0.20455715 1.161 158 147 0 255
-0.19792286 -0.20455715 1.161 158 147 0 255
-0.19638573 -0.20526192 1.1650001 158 147 0 255
-0.19416668 -0.20526192 1.1650001 158 147 0 255
-0.19194762 -0.20526192 1.1650001 158 147 0 255
-0.18972859 -0.20526192 1.1650001 158 147 0 255
-0.18750954 -0.20526192 1.1650001 158 147 0 255
-0.18592668 -0.20596667 1.169 158 147 0 255
-0.18370001 -0.20596667 1.169 158 147 0 255
-0.18147334 -0.20596667 1.169 158 147 0 255
-0.17924666 -0.20596667 1.169 158 147 0 255
-0.17702 -0.20596667 1.169 158 147 0 255
-0.17479333 -0.20596667 1.169 158 147 0 255
-0.22607717 -0.20583144 1.1810001 158 147 0 255
-0.22306953 -0.20513429 1.177 158 147 0 255
-0.22082762 -0.20513429 1.177 158 147 0 255
-0.21784288 -0.20443715 1.1730001 158 147 0 255
-0.21487333 -0.20374 1.169 158 147 0 255
-0.21264668 -0.20374 1.169 158 147 0 255
-0.2097 -0.20304286 1.1650001 158 147 0 255
-0.20748097 -0.20304286 1.1650001 158 147 0 255
-0.20455715 -0.20234571 1.161 158 147 0 255
-0.20234571 -0.20234571 1.161 158 147 0 255
-0.20013429 -0.20234571 1.161 158 147 0 255
-0.19792286 -0.20234571 1.161 158 147 0 255
-0.19638573 -0.20304286 1.1650001 158 147 0 255
-0.19416668 -0.20304286 1.1650001 158 147 0 255
-0.19194762 -0.20304286 1.1650001 158 147 0 255
-0.18972859 -0.20304286 1.1650001 158 147 0 255
-0.18750954 -0.20304286 1.1650001 158 147 0 255
-0.18592668 -0.20374 1.169 158 147 0 255
-0.18370001 -0.20374 1.169 158 147 0 255
-0.18147334 -0.20374 1.169 158 147 0 255
-0.17924666 -0.20374 1.169 158 147 0 255
-0.17702 -0.20374 1.169 158 147 0 255
-0.17479333 -0.20374 1.169 158 147 0 255
-0.17315716 -0.20443715 1.1730001 158 147 0 255
-0.22382765 -0.20358191 1.1810001 158 147 0 255
-0.22082762 -0.20289238 1.177 158 147 0 255
-0.21784288 -0.20220287 1.1730001 158 147 0 255
-0.21487333 -0.20151334 1.169 158 147 0 255
-0.21264668 -0.20151334 1.169 158 147 0 255
-0.2097 -0.20082383 1.1650001 158 147 0 255
-0.20748097 -0.20082383 1.1650001 158 147 0 255
-0.20526192 -0.20082383 1.1650001 158 147 0 255
-0.20304286 -0.20082383 1.1650001 158 147 0 255
-0.20082383 -0.20082383 1.1650001 158 147 0 255
-0.19860478 -0.20082383 1.1650001 158 147 0 255
-0.19638573 -0.20082383 1.1650001 158 147 0 255
-0.19416668 -0.20082383 1.1650001 158 147 0 255
-0.19194762 -0.20082383 1.1650001 158 147 0 255
-0.18972859 -0.20082383 1.1650001 158 147 0 255
-0.18750954 -0.20082383 1.1650001 158 147 0 255
-0.18592668 -0.20151334 1.169 158 147 0 255
-0.18370001 -0.20151334 1.169 158 147 0 255
-0.18147334 -0.20151334 1.169 158 147 0 255
-0.17986001 -0.20220287 1.1730001 158 147 0 255
-0.17762573 -0.20220287 1.1730001 158 147 0 255
-0.17479333 -0.20151334 1.169 158 147 0 255
-0.17256667 -0.20151334 1.169 158 147 0 255
-0.22082762 -0.20065048 1.177 158 147 0 255
-0.21784288 -0.19996858 1.1730001 158 147 0 255
-0.21487333 -0.19928667 1.169 158 147 0 255
-0.21264668 -0.19928667 1.169 158 147 0 255
-0.2097 -0.19860478 1.1650001 158 147 0 255
-0.20748097 -0.19860478 1.1650001 158 147 0 255
-0.20526192 -0.19860478 1.1650001 158 147 0 255
-0.20304286 -0.19860478 1.1650001 158 147 0 255
-0.20082383 -0.19860478 1.1650001 158 147 0 255
-0.19860478 -0.19860478 1.1650001 158 147 0 255
-0.19638573 -0.19860478 1.1650001 158 147 0 255
-0.19416668 -0.19860478 1.1650001 158 147 0 255
-0.19194762 -0.19860478 1.1650001 158 147 0 255
-0.18972859 -0.19860478 1.1650001 158 147 0 255
-0.18750954 -0.19860478 1.1650001 158 147 0 255
-0.18592668 -0.19928667 1.169 158 147 0 255
-0.18370001 -0.19928667 1.169 158 147 0 255
-0.18209431 -0.19996858 1.1730001 158 147 0 255
-0.17986001 -0.19996858 1.1730001 158 147 0 255
-0.17762573 -0.19996858 1.1730001 158 147 0 255
-0.17479333 -0.19928667 1.169 158 147 0 255
-0.17256667 -0.19928667 1.169 158 147 0 255
-0.17092286 -0.19996858 1.1730001 158 147 0 255
-0.21487333 -0.19706 1.169 158 147 0 255
-0.21264668 -0.19706 1.169 158 147 0 255
-0.2097 -0.19638573 1.1650001 158 147 0 255
-0.20748097 -0.19638573 1.1650001 158 147 0 255
-0.20526192 -0.19638573 1.1650001 158 147 0 255
-0.20304286 -0.19638573 1.1650001 158 147 0 255
-0.20082383 -0.19638573 1.1650001 158 147 0 255
-0.19860478 -0.19638573 1.1650001 158 147 0 255
-0.19638573 -0.19638573 1.1650001 158 147 0 255
-0.19416668 -0.19638573 1.1650001 158 147 0 255
-0.19194762 -0.19638573 1.1650001 158 147 0 255
-0.18972859 -0.19638573 1.1650001 158 147 0 255
-0.18815334 -0.19706 1.169 158 147 0 255
-0.18592668 -0.19706 1.169 158 147 0 255
-0.18370001 -0.19706 1.169 158 147 0 255
-0.18209431 -0.1977343 1.1730001 158 147 0 255
-0.18047334 -0.19840857 1.177 158 147 0 255
-0.17823143 -0.19840857 1.177 158 147 0 255
-0.17598952 -0.19840857 1.177 158 147 0 255
-0.17315716 -0.1977343 1.1730001 158 147 0 255
-0.17092286 -0.1977343 1.1730001 158 147 0 255
-0.21264668 -0.19483334 1.169 158 147 0 255
-0.2097 -0.19416668 1.1650001 158 147 0 255
-0.20748097 -0.19416668 1.1650001 158 147 0 255
-0.20526192 -0.19416668 1.1650001 158 147 0 255
-0.20304286 -0.19416668 1.1650001 158 147 0 255
-0.20082383 -0.19416668 1.1650001 158 147 0 255
-0.19860478 -0.19416668 1.1650001 158 147 0 255
-0.19638573 -0.19416668 1.1650001 158 147 0 255
-0.19483334 -0.19483334 1.169 158 147 0 255
-0.19260666 -0.19483334 1.169 158 147 0 255
-0.19038001 -0.19483334 1.169 158 147 0 255
-0.18815334 -0.19483334 1.169 158 147 0 255
-0.18592668 -0.19483334 1.169 158 147 0 255
-0.18432859 -0.19550002 1.1730001 158 147 0 255
-0.18271525 -0.19616666 1.177 158 147 0 255
-0.18108669 -0.19683334 1.1810001 158 147 0 255
-0.17883717 -0.19683334 1.1810001 158 147 0 255
-0.17658764 -0.19683334 1.1810001 158 147 0 255
-0.17374763 -0.19616666 1.177 158 147 0 255
-0.17150572 -0.19616666 1.177 158 147 0 255
-0.21264668 -0.19260666 1.169 158 147 0 255
-0.21042001 -0.19260666 1.169 158 147 0 255
-0.20819335 -0.19260666 1.169 158 147 0 255
-0.20596667 -0.19260666 1.169 158 147 0 255
-0.20374 -0.19260666 1.169 158 147 0 255
-0.20151334 -0.19260666 1.169 158 147 0 255
-0.19928667 -0.19260666 1.169 158 147 0 255
-0.19706 -0.19260666 1.169 158 147 0 255
-0.19483334 -0.19260666 1.169 158 147 0 255
-0.19260666 -0.19260666 1.169 158 147 0 255
-0.19038001 -0.19260666 1.169 158 147 0 255
-0.18879716 -0.19326572 1.1730001 158 147 0 255
-0.18656288 -0.19326572 1.1730001 158 147 0 255
-0.18432859 -0.19326572 1.1730001 158 147 0 255
-0.18271525 -0.19392475 1.177 158 147 0 255
-0.18108669 -0.19458382 1.1810001 158 147 0 255
-0.17883717 -0.19458382 1.1810001 158 147 0 255
-0.17658764 -0.19458382 1.1810001 158 147 0 255
-0.17433812 -0.19458382 1.1810001 158 147 0 255
-0.21175523 -0.19363715 1.189 158 147 0 255
-0.2073762 -0.19168288 1.177 158 147 0 255
-0.20513429 -0.19168288 1.177 158 147 0 255
-0.20220287 -0.19103144 1.1730001 158 147 0 255
-0.19996858 -0.19103144 1.1730001 158 147 0 255
-0.1977343 -0.19103144 1.1730001 158 147 0 255
-0.19550002 -0.19103144 1.1730001 158 147 0 255
-0.19392475 -0.19168288 1.177 158 147 0 255
-0.19168288 -0.19168288 1.177 158 147 0 255
-0.19008479 -0.19233431 1.1810001 158 147 0 255
-0.18783526 -0.19233431 1.1810001 158 147 0 255
-0.1862143 -0.19298573 1.1850001 158 147 0 255
-0.18457811 -0.19363715 1.189 158 147 0 255
-0.18231334 -0.19363715 1.189 158 147 0 255
-0.18004857 -0.19363715 1.189 158 147 0 255
-0.17718573 -0.19298573 1.1850001 158 147 0 255
-0.17492858 -0.19298573 1.1850001 158 147 0 255
-0.21175523 -0.19137238 1.189 158 147 0 255
-0.20878571 -0.19072859 1.1850001 158 147 0 255
-0.20513429 -0.18944097 1.177 158 147 0 255
-0.20289238 -0.18944097 1.177 158 147 0 255
-0.19996858 -0.18879716 1.1730001 158 147 0 255
-0.1977343 -0.18879716 1.1730001 158 147 0 255
-0.19616666 -0.18944097 1.177 158 147 0 255
-0.19392475 -0.18944097 1.177 158 147 0 255
-0.19233431 -0.19008479 1.1810001 158 147 0 255
-0.19008479 -0.19008479 1.1810001 158 147 0 255
-0.18847144 -0.19072859 1.1850001 158 147 0 255
-0.18684286 -0.19137238 1.189 158 147 0 255
-0.18519907 -0.19201621 1.1930001 158 147 0 255
-0.18292668 -0.19201621 1.1930001 158 147 0 255
-0.1806543 -0.19201621 1.1930001 158 147 0 255
-0.17838192 -0.19201621 1.1930001 158 147 0 255
-0.17610954 -0.19201621 1.1930001 158 147 0 255
-0.21407047 -0.19117524 1.202 158 147 0 255
-0.20949046 -0.18910763 1.189 158 147 0 255
-0.20652857 -0.18847144 1.1850001 158 147 0 255
-0.20358191 -0.18783526 1.1810001 158 147 0 255
-0.20065048 -0.18719906 1.177 158 147 0 255
-0.19840857 -0.18719906 1.177 158 147 0 255
-0.19683334 -0.18783526 1.1810001 158 147 0 255
-0.19458382 -0.18783526 1.1810001 158 147 0 255
-0.19233431 -0.18783526 1.1810001 158 147 0 255
-0.19072859 -0.18847144 1.1850001 158 147 0 255
-0.18910763 -0.18910763 1.189 158 147 0 255
-0.18747145 -0.18974383 1.1930001 158 147 0 255
-0.18582 -0.19038001 1.197 158 147 0 255
-0.18354 -0.19038001 1.197 158 147 0 255
-0.18125999 -0.19038001 1.197 158 147 0 255
-0.17897999 -0.19038001 1.197 158 147 0 255
-0.21478288 -0.18951431 1.2060001 158 147 0 255
-0.21090001 -0.1881 1.197 158 147 0 255
-0.20722571 -0.18684286 1.189 158 147 0 255
-0.20427144 -0.1862143 1.1850001 158 147 0 255
-0.20201428 -0.1862143 1.1850001 158 147 0 255
-0.19975714 -0.1862143 1.1850001 158 147 0 255
-0.19750001 -0.1862143 1.1850001 158 147 0 255
-0.19524287 -0.1862143 1.1850001 158 147 0 255
-0.19298573 -0.1862143 1.1850001 158 147 0 255
-0.19072859 -0.1862143 1.1850001 158 147 0 255
-0.18974383 -0.18747145 1.1930001 158 147 0 255
-0.18747145 -0.18747145 1.1930001 158 147 0 255
-0.18582 -0.1881 1.197 158 147 0 255
-0.18430667 -0.18888572 1.202 158 147 0 255
-0.18201713 -0.18888572 1.202 158 147 0 255
-0.17972763 -0.18888572 1.202 158 147 0 255
-0.21942002 -0.18923526 1.2190001 158 147 0 255
-0.21478288 -0.18721716 1.2060001 158 147 0 255
-0.21090001 -0.18582 1.197 158 147 0 255
-0.20792288 -0.18519907 1.1930001 158 147 0 255
-0.20427144 -0.18395716 1.1850001 158 147 0 255
-0.20201428 -0.18395716 1.1850001 158 147 0 255
-0.20043144 -0.18457811 1.189 158 147 0 255
-0.19816667 -0.18457811 1.189 158 147 0 255
-0.19590192 -0.18457811 1.189 158 147 0 255
-0.19363715 -0.18457811 1.189 158 147 0 255
-0.19201621 -0.18519907 1.1930001 158 147 0 255
-0.19038001 -0.18582 1.197 158 147 0 255
-0.1881 -0.18582 1.197 158 147 0 255
-0.18721716 -0.18721716 1.2060001 158 147 0 255
-0.18492001 -0.18721716 1.2060001 158 147 0 255
-0.18262286 -0.18721716 1.2060001 158 147 0 255
-0.22246952 -0.18752667 1.223 158 147 0 255
-0.21942002 -0.18691334 1.2190001 158 147 0 255
-0.21620764 -0.18614668 1.2140001 158 147 0 255
-0.21248573 -0.18492001 1.2060001 158 147 0 255
-0.20949143 -0.18430667 1.202 158 147 0 255
-0.20634 -0.18354 1.197 158 147 0 255
-0.20337811 -0.18292668 1.1930001 158 147 0 255
-0.20110573 -0.18292668 1.1930001 158 147 0 255
-0.19883335 -0.18292668 1.1930001 158 147 0 255
-0.19656096 -0.18292668 1.1930001 158 147 0 255
-0.19494002 -0.18354 1.197 158 147 0 255
-0.19346476 -0.18430667 1.202 158 147 0 255
-0.19117524 -0.18430667 1.202 158 147 0 255
-0.18888572 -0.18430667 1.202 158 147 0 255
-0.18783811 -0.18553334 1.21 158 147 0 255
-0.18553334 -0.18553334 1.21 158 147 0 255
-0.18322857 -0.18553334 1.21 158 147 0 255
-0.22246952 -0.18519714 1.223 158 147 0 255
-0.21942002 -0.18459144 1.2190001 158 147 0 255
-0.21620764 -0.1838343 1.2140001 158 147 0 255
-0.21319048 -0.18322857 1.21 158 147 0 255
-0.21088572 -0.18322857 1.21 158 147 0 255
-0.20789143 -0.18262286 1.2060001 158 147 0 255
-0.20491238 -0.18201713 1.202 158 147 0 255
-0.20178001 -0.18125999 1.197 158 147 0 255
-0.19950001 -0.18125999 1.197 158 147 0 255
-0.19804381 -0.18201713 1.202 158 147 0 255
-0.19575429 -0.18201713 1.202 158 147 0 255
-0.19410858 -0.18262286 1.2060001 158 147 0 255
-0.19181143 -0.18262286 1.2060001 158 147 0 255
-0.18951431 -0.18262286 1.2060001 158 147 0 255
-0.18783811 -0.18322857 1.21 158 147 0 255
-0.18614668 -0.1838343 1.2140001 158 147 0 255
-0.1838343 -0.1838343 1.2140001 158 147 0 255
-0.22246952 -0.18286762 1.223 158 147 0 255
-0.21942002 -0.18226953 1.2190001 158 147 0 255
-0.21620764 -0.18152192 1.2140001 158 147 0 255
-0.21389526 -0.18152192 1.2140001 158 147 0 255
-0.21158287 -0.18152192 1.2140001 158 147 0 255
-0.20927049 -0.18152192 1.2140001 158 147 0 255
-0.20627619 -0.1809238 1.21 158 147 0 255
-0.20262285 -0.17972763 1.202 158 147 0 255
-0.20033334 -0.17972763 1.202 158 147 0 255
-0.19804381 -0.17972763 1.202 158 147 0 255
-0.19640572 -0.18032572 1.2060001 158 147 0 255
-0.19410858 -0.18032572 1.2060001 158 147 0 255
-0.19181143 -0.18032572 1.2060001 158 147 0 255
-0.19014287 -0.1809238 1.21 158 147 0 255
-0.18845907 -0.18152192 1.2140001 158 147 0 255
-0.18691334 -0.18226953 1.2190001 158 147 0 255
-0.22410668 -0.18186669 1.2320001 158 147 0 255
-0.22014 -0.1805381 1.223 158 147 0 255
-0.21709812 -0.17994764 1.2190001 158 147 0 255
-0.2147762 -0.17994764 1.2190001 158 147 0 255
-0.21245429 -0.17994764 1.2190001 158 147 0 255
-0.21013241 -0.17994764 1.2190001 158 147 0 255
-0.2069581 -0.17920953 1.2140001 158 147 0 255
-0.20397145 -0.17861904 1.21 158 147 0 255
-0.20166667 -0.17861904 1.21 158 147 0 255
-0.19936191 -0.17861904 1.21 158 147 0 255
-0.19705714 -0.17861904 1.21 158 147 0 255
-0.19475238 -0.17861904 1.21 158 147 0 255
-0.19244762 -0.17861904 1.21 158 147 0 255
-0.19077145 -0.17920953 1.2140001 158 147 0 255
-0.18923526 -0.17994764 1.2190001 158 147 0 255
-0.18752667 -0.1805381 1.223 158 147 0 255
-0.22248 -0.18010285 1.2360001 158 147 0 255
-0.21852288 -0.17879145 1.2270001 158 147 0 255
-0.21618573 -0.17879145 1.2270001 158 147 0 255
-0.21315143 -0.17820857 1.223 158 147 0 255
-0.21082191 -0.17820857 1.223 158 147 0 255
-0.20849238 -0.17820857 1.223 158 147 0 255
-0.20616287 -0.17820857 1.223 158 147 0 255
-0.20316668 -0.17762573 1.2190001 158 147 0 255
-0.20084478 -0.17762573 1.2190001 158 147 0 255
-0.1991743 -0.17820857 1.223 158 147 0 255
-0.19620097 -0.17762573 1.2190001 158 147 0 255
-0.19387905 -0.17762573 1.2190001 158 147 0 255
-0.19155715 -0.17762573 1.2190001 158 147 0 255
-0.1898562 -0.17820857 1.223 158 147 0 255
-0.18890668 -0.17952001 1.2320001 158 147 0 255
-0.22012573 -0.17774859 1.2360001 158 147 0 255
-0.21706668 -0.17717335 1.2320001 158 147 0 255
-0.21472003 -0.17717335 1.2320001 158 147 0 255
-0.21237335 -0.17717335 1.2320001 158 147 0 255
-0.21002668 -0.17717335 1.2320001 158 147 0 255
-0.20768002 -0.17717335 1.2320001 158 147 0 255
-0.20533335 -0.17717335 1.2320001 158 147 0 255
-0.20298669 -0.17717335 1.2320001 158 147 0 255
-0.20064001 -0.17717335 1.2320001 158 147 0 255
-0.19748859 -0.17645431 1.2270001 158 147 0 255
-0.19515145 -0.17645431 1.2270001 158 147 0 255
-0.19281431 -0.17645431 1.2270001 158 147 0 255
-0.19125335 -0.17717335 1.2320001 158 147 0 255
-0.21777143 -0.17539428 1.2360001 158 147 0 255
-0.21541716 -0.17539428 1.2360001 158 147 0 255
-0.21306285 -0.17539428 1.2360001 158 147 0 255
-0.21070859 -0.17539428 1.2360001 158 147 0 255
-0.20835428 -0.17539428 1.2360001 158 147 0 255
-0.20600002 -0.17539428 1.2360001 158 147 0 255
-0.20364572 -0.17539428 1.2360001 158 147 0 255
-0.20129144 -0.17539428 1.2360001 158 147 0 255
-0.19893715 -0.17539428 1.2360001 158 147 0 255
-0.19658287 -0.17539428 1.2360001 158 147 0 255
-0.21306285 -0.17304002 1.2360001 158 147 0 255
-0.21070859 -0.17304002 1.2360001 158 147 0 255
0 0 0 1 0 0 0 1 0 0 0 1 0 0 0 0 0 507 1 0 0
