ply
format ascii 1.0
comment PCL generated
element vertex 1253
property float x
property float y
property float z
element camera 0
property float view_px
property float view_py
property float view_pz
property float x_axisx
property float x_axisy
property float x_axisz
property float y_axisx
property float y_axisy
property float y_axisz
property float z_axisx
property float z_axisy
property float z_axisz
property float focal
property float scalex
property float scaley
property float centerx
property float centery
property int viewportx
property int viewporty
property float k1
property float k2
end_header
0.049879149 -0.056034438 -0.00020647096
-0.11691052 0.011608341 0.014900196
0.052544355 -0.067233972 0.0084327115
-0.11310577 -0.02016107 0.013951525
0.03229285 -0.10197385 0.016754089
0.014409271 0.077321656 -0.0012203471
-0.11235619 -0.060032628 0.018803865
-0.075632527 -0.028868614 -0.0023587481
-0.028242003 0.077842467 -0.0014675922
-0.077175729 -0.056233834 -5.6648452e-05
0.0064780014 0.013826462 0.00019787152
0.091896705 -0.046152469 0.017840583
-0.025280666 -0.032518707 -0.00020632462
-0.047152441 -0.10346502 0.015554036
0.021316197 -0.061522111 -0.0024699077
0.089298829 0.044905275 0.016537853
0.11036134 0.0097370585 0.02099584
-0.12761804 -0.0014646028 0.018115029
0.064880662 0.055136006 0.010318644
0.011252811 -0.091624685 0.0094503872
-0.018670326 -0.050885685 -0.0010764023
0.01009349 -0.11733618 0.018148694
-0.068838209 -0.028406886 -0.0019170833
-0.095398217 -0.036879919 0.0080307415
0.040407274 -0.10278096 0.018286925
-0.01206822 -0.083844937 -0.0017684874
0.039441898 0.016829729 -0.0013991585
-0.049879 0.086184517 0.010549415
-0.01213519 0.0026472616 -0.0007051804
-0.037225619 -0.10528624 0.015279228
0.0050201965 -0.079126373 -0.0025984575
-0.070302367 0.0055481885 -0.0021982258
-0.080255345 -0.029096384 -0.0026260219
0.01975213 -0.10856587 0.017150331
-0.12343276 0.064891778 0.02099807
0.031566601 -0.11301717 0.019028252
0.035953913 0.074516878 0.0030479683
0.093603387 -0.071303099 0.023219761
0.015708417 0.10052747 0.014699832
-0.045250051 0.096471235 0.013355252
0.076602101 0.015875477 0.0039175483
-0.050142799 0.12185139 0.018375363
-0.062880211 0.10139106 0.018023279
-0.0055167535 -0.0034527744 0.00054727739
-0.10655537 -0.088782527 0.01831536
-0.054477379 0.052322552 -0.0019324519
0.063479036 0.026078964 -0.0012557013
-0.026436592 -0.061579376 -0.001643263
-0.08359199 -0.054253407 0.0041790511
0.035119176 -0.1046948 0.0170167
-0.059677213 -0.053857531 -0.002541593
0.059188623 0.093348734 0.019216193
0.010862584 -0.011758195 0.00054860912
-0.082568377 -0.10887262 0.019585768
0.022771094 -0.12534127 0.019865613
-0.041249853 -0.011744571 -0.0010705125
0.02320759 -0.070544563 -0.00268508
0.00049514812 -0.12222286 0.019369017
-0.044347502 -0.019753382 -0.00013548728
0.10024943 -0.034358837 0.020085877
0.040745009 0.02134918 -0.001654342
-0.11896081 0.050171226 0.019319434
-0.014074069 -0.073082812 -0.0021913811
-0.026511129 0.035154544 -0.00026715486
0.0052254512 0.05436261 -0.002435348
-0.096432738 -0.058981486 0.013464356
-0.080838546 -0.060428169 0.0080650663
-0.0046110419 -0.12962174 0.0181638
0.001277282 -0.077042833 -0.0029093954
0.036432371 -0.11303343 0.020843612
-0.12106504 -0.054118685 0.020563366
-0.10771943 0.02486478 0.013637505
0.034104012 -0.035997622 -0.00034525135
-0.054992188 0.076568574 0.0023047561
0.043772478 0.057266925 -0.002567606
0.0092568621 0.041050032 -0.0019224638
0.094685808 0.010561761 0.016598029
-0.08038725 0.062555924 0.0093659582
-0.032071859 -0.0069131302 -0.00092109526
0.10047501 -0.043618497 0.020171434
-0.001206892 0.013852431 -0.00083401974
-0.089558318 0.00052366196 -0.0025770001
-0.077078275 -0.066654362 0.0099198259
-0.10087414 -0.078835279 0.018267751
-0.016890787 -0.070345148 -0.0028591917
-0.075549603 0.040176846 -0.0017329453
0.053671423 0.065323845 0.0085814083
-0.094590485 -0.034089625 0.0039226366
0.095640808 0.053373992 0.020773446
-0.0060266554 -0.12371178 0.020677963
-0.06643147 0.093670003 0.016418468
0.0086442819 0.010364111 -0.00077149866
0.024910815 0.085759915 0.0089929234
0.028704211 -0.013923292 -0.00026792276
0.093963265 0.06988015 0.023133358
-0.041925851 -0.05125415 -0.0020092316
-0.053408366 -0.056694306 -0.0025538704
-0.074730232 -0.10392869 0.019800551
0.091380164 -0.060479913 0.019738965
-0.098742187 -0.010799998 0.0021110622
-0.092054658 0.085434973 0.019625556
0.081325218 -0.0089731049 0.010819659
-0.028049465 0.038783364 -0.00035591956
-0.11423928 -0.0784036 0.018476149
0.093024552 0.073835008 0.023035564
-0.00067091436 0.07738591 -0.0029890682
-0.082317635 -0.0034235003 -0.0025763507
-0.059744708 0.072073147 0.0017347413
-0.10436405 0.066703118 0.017843291
-0.043636467 0.03867048 -0.00044466252
-0.062474091 0.08655028 0.012910545
0.060911704 -0.065147445 0.012401663
0.056914654 -0.061825912 0.0074914102
-0.021479074 -0.10312875 0.012894908
-0.1042512 0.054393202 0.015499001
0.069156796 -0.011235704 -0.00055680942
0.0083284797 -0.063471347 -0.0017093631
-0.022216367 0.12488495 0.021894889
0.00037357633 -0.072446339 -0.0021133716
-0.029703978 0.066077247 -0.0014573885
-0.10839929 0.079532303 0.022595471
0.093328223 -0.0071249367 0.016212482
0.046326399 0.067913942 0.0030066124
0.0015446279 0.035353318 -0.0015866315
0.040989328 -0.050537549 -0.0023260419
0.0049239853 0.11562358 0.018827975
0.013900617 0.073059499 -0.0030065745
0.004988038 0.039580524 -0.0017976417
0.11621747 0.0061826925 0.023282345
-0.11748423 -0.044471052 0.018201308
0.0055985344 -0.017378479 -0.00056437135
0.1060516 -0.048027776 0.02337156
0.064397588 -0.082066223 0.017668547
-0.11308511 0.081007741 0.020035326
-0.053380989 0.097179979 0.015438165
-0.0086570326 0.11199697 0.016321391
-0.040821932 -0.016333062 -2.9126622e-05
-0.056331456 0.10759655 0.018993488
-0.042865321 0.062148266 -0.0012091323
0.020621302 0.0068968716 -0.00067551056
-0.063351043 0.11784606 0.018864948
-0.061245941 0.046918571 -0.0021754433
-0.13819875 -0.022201927 0.018629093
-0.012498621 0.072579592 -0.0018549778
0.046570405 0.0070776232 -0.0012658457
-0.011092542 -0.11785956 0.018463992
-0.10179834 -0.038266309 0.012932609
0.039293744 0.10205158 0.018020451
0.064226039 0.093208432 0.019400686
-0.067779973 0.057906006 -0.0020812664
0.073864527 -0.065410227 0.01568583
0.088862136 0.0050887046 0.013688903
-0.091847047 -0.021889037 -0.00023297188
0.024802744 0.047118165 -0.0023893826
-0.11375956 -0.06540069 0.020172477
0.10850958 -0.041358944 0.023348164
0.070941843 0.083769806 0.018576715
0.021288909 -0.012131272 -0.00036992805
-0.010399703 0.10522358 0.015053434
-0.0088869724 -0.078871027 -0.002959019
-0.074220501 -0.059653226 6.174816e-06
0.011402353 0.12822884 0.019408148
-0.087879911 0.063337512 0.013498536
0.088754982 0.076140791 0.022786256
-0.11931208 -0.063029803 0.021350827
-0.088070735 0.027564773 -0.00094991026
-0.0021958789 0.052357398 -0.0022418001
-0.10173173 -0.042383514 0.01249397
-0.085347578 -0.077880129 0.015286002
0.065676577 0.04720144 0.0048661008
0.06282264 -0.029808436 -0.0020233095
-0.049956203 -0.044407126 -0.00084584282
-0.025026577 0.066252902 -0.0015389514
0.074837238 0.030936845 0.0082356688
0.031527206 -0.027410977 0.00015654575
-0.074033432 0.0038735254 -0.0014260841
0.11106042 -0.019407883 0.022690121
-0.02800682 -0.075396568 -0.0030911658
-0.036633179 0.084547654 0.0023076534
0.0024762987 0.08865425 0.0048633339
-0.044842109 0.085209519 0.0076892618
-0.10224713 0.019997584 0.010075847
-0.047407929 -0.073946625 -0.0022997323
-0.075016722 -0.11094142 0.019606568
-0.10398737 0.050083473 0.014690429
0.091064148 -0.016354198 0.014936158
0.10704574 -0.029587276 0.021042818
0.072807007 0.002577499 0.00042517696
-0.083676323 0.044734281 -0.00033261636
0.0080745742 -0.00046787653 0.00060603599
0.077113166 -0.0011876299 0.0027671109
0.06631577 -0.04495687 0.0041559376
0.047584806 0.093908519 0.016144117
0.09608908 -0.046396937 0.019163217
0.022925681 0.097856522 0.014584525
-0.12963769 0.0015378607 0.019732408
-0.076744452 0.054406811 -0.00040901848
-0.078827694 -0.033447806 -0.0017768276
-0.015955921 0.04383079 -0.00060482521
0.077324152 -0.066858515 0.016816707
-0.10483985 0.081944481 0.022210546
-0.02724776 0.017133903 -0.0010306175
0.0091647934 -0.0070494507 -0.00048343913
-0.089811534 0.093942404 0.02040625
0.09640757 0.016128361 0.016425461
0.037948515 -0.075402156 0.0039244136
-0.02931742 -0.11738354 0.018698305
-0.030492859 -0.019023964 0.00012625157
0.063948542 0.081025094 0.016206773
0.05614955 0.076665767 0.014244335
0.0041340669 0.027497701 -0.0012910691
-0.042037591 0.0046589579 -0.00018615945
-0.097528949 -0.041136026 0.011691531
-0.10030901 -0.00032653875 0.0044071772
0.057723712 0.089882173 0.017946489
-0.041734502 -0.11151698 0.017604638
-0.089446552 0.031376231 -0.00081144605
-0.11263616 0.077488951 0.022830538
0.088522926 -0.073424704 0.021313615
-0.018151525 -0.095031828 0.010817377
-0.10523896 -0.040298726 0.013284176
-0.017908908 -0.0074954256 0.00039459887
0.036372978 -0.028477039 -0.00088461529
0.020396998 0.013081761 0.00022640545
-0.11994199 0.062614404 0.022673564
0.056546494 -0.087354586 0.01634107
-0.0090148086 0.02381474 -0.0011201417
-0.11987637 0.0022645239 0.016561987
-0.019297576 0.11906083 0.019687371
-0.027000975 -0.129096 0.019404814
0.03677281 0.071441948 0.00012451049
-0.07058911 -0.05732552 -0.0020347429
0.026968315 -0.089350626 0.011602305
-0.018333759 -0.13050678 0.019533204
-0.052051321 -0.048354089 -0.0019218174
0.077350579 -0.091512747 0.02277484
-0.098188579 -0.033967569 0.0085346056
-0.05772559 -0.083847649 0.010309208
0.031624049 0.10193627 0.015961587
-0.094564915 -0.029267177 0.0031750388
-0.057957072 -0.064576417 -0.0017784561
-0.12529695 -0.034355823 0.01876827
-0.055689082 -0.06808123 -0.0025541997
0.044937868 0.020881165 -0.0017884836
-0.05965741 -0.076886408 0.0061270697
-0.0613336 0.059764944 -0.0013955729
0.09395048 0.043855686 0.017902482
0.099160664 -0.060377225 0.023121353
0.10505401 -0.040433269 0.021384539
-0.018875936 0.066872932 -0.0026748283
-0.050247293 0.067671254 -0.0013917419
-0.064041883 -0.031795017 -0.0016349071
0.051691554 0.00067009981 -0.0013406887
-0.10817563 -0.031326074 0.01322194
0.073911533 -0.096102253 0.02221109
0.11379203 -0.0025125546 0.023112345
0.01111694 -0.020693224 -0.00057926134
0.05599311 -0.10369259 0.021604313
-0.054319933 -0.086703554 0.01069719
-0.034798294 -0.12762547 0.018221311
-0.024988176 -0.11840441 0.018916676
-0.0049307616 -0.080763489 -0.0025784736
0.096426718 0.048457775 0.019215135
-0.020333031 -0.018663798 0.00018961949
-0.03114352 0.028558774 -0.00016357406
-0.1098597 0.0044034133 0.012406944
-0.057573371 0.011825211 -0.00080194738
-0.10829684 -0.058824647 0.01656542
0.087570392 -0.044276092 0.016331891
0.024654236 -0.0057088286 -0.0003705828
-0.027043078 0.047442183 -0.0017102831
-0.072048068 0.028385926 -0.0024101692
0.10076071 -0.050423443 0.022249274
0.073685095 -0.060799822 0.015721574
0.0041975402 0.058640257 -0.0014367542
-0.12732197 0.031793367 0.020715453
-0.010721731 0.080219232 -0.0025221528
-0.047202215 0.028414797 -0.00053332094
0.082092077 0.074023627 0.020335579
-0.037868146 -0.034009762 -0.0012179139
0.090654939 -0.040759474 0.01690652
0.082020029 -0.090032637 0.020672912
0.020979488 0.045117699 -0.0011433529
0.031312909 0.079543501 0.0055869971
-0.029587304 0.032750629 -0.0013051634
-0.023558693 -0.047251433 -0.00087679969
0.078526467 -0.083523199 0.021661405
-0.070920736 0.033398993 -0.0014519939
-0.027569285 -0.021913903 -0.00093903817
0.035115872 0.043276586 -0.0024121888
-0.015604222 0.020076636 0.00010503341
0.0023697505 0.1130337 0.016931569
-0.029432159 -0.033325072 -0.00025969587
-0.013756897 -0.025455404 0.00013967937
-0.016705327 -0.021725409 0.00022931528
-0.13214682 -0.0095627652 0.019816333
0.021267081 -0.0076880003 -0.00037272502
0.0049175266 -0.030870181 6.0753398e-05
0.070696801 -0.076585077 0.017127307
0.050310347 -0.022021433 -0.0012429293
0.027424473 0.022132734 -0.00024463446
0.068333097 -0.015381896 -0.0017340144
0.090540156 -0.033754915 0.016075596
-0.016214225 0.10662468 0.014619425
0.0033349767 -0.068217136 -0.0027561665
-0.041296378 -0.088951699 0.0096696801
0.071490981 0.087851822 0.019776618
0.11238512 0.0062062521 0.021679543
0.022465363 -0.084217846 0.0043716682
0.01147717 -0.05717542 -0.0013869379
-0.039991453 0.076837383 -0.0018550963
0.064123392 -0.092283294 0.02023633
0.02218142 -0.11448018 0.019235885
-0.079379797 -0.013249967 -0.0024637531
-0.0370031 0.10109995 0.014838019
-0.096218087 -0.01675598 0.0018296584
0.064635143 0.065176412 0.012765136
0.03025399 0.032551281 -0.0018732733
-0.033515088 -0.11658784 0.018678434
0.044067971 -0.037340388 -0.00075549964
0.068438739 -0.054363612 0.012302102
-0.092711486 0.0030182123 -0.0020494983
-0.055267744 -0.090517417 0.012883441
-0.12469852 0.019375853 0.01788828
0.04976508 -0.10921092 0.021929648
0.076668397 0.092319161 0.018947281
0.10814609 -0.043677449 0.019727092
-0.049292225 -0.084830858 0.0070056533
-0.097512953 -0.094879821 0.021311717
0.054808117 0.024890821 -0.0023425254
-0.047035567 0.044168163 -0.0005395558
-0.057713278 -0.12103853 0.020550132
-0.0019456114 0.10221529 0.014193803
0.0032495372 0.077053338 -0.0028332672
-0.10561468 0.037209243 0.013352636
-0.079430766 0.079688825 0.015213526
-0.022779521 -0.00072418875 -0.0008210286
0.10002261 0.034854114 0.019908477
-0.028326515 0.021207215 -5.1814404e-05
-0.034430478 0.10541727 0.015991017
0.058098979 0.034750681 -0.0025532627
-0.09642195 -0.090813786 0.019979361
0.0083679054 -0.029130589 -0.00085617451
0.037763454 -0.014429234 0.00073599268
-0.10287701 -0.026503954 0.011752018
-0.048894927 -0.009874085 -0.0002805228
0.0036876483 0.002694533 0.00047918959
0.021921471 0.055941634 -0.0026655504
0.0052570421 0.12575831 0.01955894
-0.06861639 -0.012547957 -0.0019988602
-0.0085081784 -0.13029376 0.019170534
-0.07433378 0.06683246 0.00722314
0.087523989 -0.018668322 0.013845248
0.048569191 0.0034390986 -0.0012350457
-0.0876019 0.079848766 0.017166389
-0.050732393 -0.076006018 -0.00088380376
0.0013780915 0.023858234 5.2077958e-06
0.098474592 0.045004077 0.019451799
-0.024299253 -0.12326913 0.019723933
-0.074865669 0.057567194 0.0011297215
0.030113798 0.057327341 -0.0028281496
0.081854641 0.010342553 0.011494176
-0.05626433 -0.00047648587 -0.00061598886
-0.00830309 -0.102935 0.012842389
-0.027953103 0.04292915 -0.00049101352
-0.12178833 0.059482515 0.021027241
0.1136224 -0.029456936 0.019570399
-0.0022481047 -0.017176151 0.00039859241
-0.0065253037 0.015215358 -0.00087603193
-0.083547167 -0.015676649 -0.0026322315
0.039171267 -0.11747764 0.021887094
-0.070570663 0.039190825 -0.0025141302
0.095278837 0.058668327 0.02047357
0.030747749 -0.090091988 0.013278916
-0.13554895 -0.0079082707 0.021847103
0.055257026 -0.082490392 0.015685944
-0.087095737 -0.09086898 0.018623408
-0.033562034 -0.10782242 0.014951007
-0.0077259475 -0.083021469 -0.00086590194
-0.037059773 0.11841609 0.019525405
-0.050920166 0.045197673 -0.00069380034
-0.13375363 0.0022424366 0.021277774
0.017620066 0.069787875 -0.0019293568
0.056501172 -0.10885804 0.022051595
0.087709136 0.080936909 0.018903188
-0.036148813 -0.083333954 -1.4453952e-05
0.016600903 0.12191091 0.020489931
-0.072500825 -0.073082298 0.011191693
0.048692334 0.018459516 -0.0018393446
0.031401735 0.0820098 0.0089444611
-0.11798977 -0.020258391 0.015505744
-0.023173854 0.074490651 -0.0017801789
0.055462621 0.037554126 -0.0017050684
-0.053880636 -0.044011854 -0.00084448681
0.045789074 0.076450482 0.011850108
-0.0056818505 -0.089706846 0.004642698
-0.051318832 0.027229212 -0.0005517691
-0.00077874272 -0.091605097 0.0081938189
0.05456955 -0.09537369 0.017851511
0.090027325 -0.079190344 0.019260183
-0.020347018 -0.010604579 -0.000760375
0.053588066 0.11184189 0.022344423
0.085285492 -0.065476827 0.019718546
-0.075276867 0.11284178 0.019249216
0.040219758 0.034990788 -0.0011479029
0.026142243 0.018264323 -0.0011775743
-0.041397914 0.048563223 -0.00057420955
-0.011525476 0.084826604 -0.00072578277
0.060767587 -0.079258949 0.016217781
-0.082176261 0.090987965 0.017859638
-0.094743036 0.052733794 0.012479968
-0.037963964 0.038640745 -0.00036477158
0.069454595 -0.025935194 0.00094351394
-0.065823138 -0.10431378 0.01825743
-0.07336244 -0.0038686376 -0.0022645078
-0.12495179 0.0031179434 0.018223319
0.076208554 -0.038879715 0.012229699
-0.052000478 0.07238277 -0.0014311709
-0.049794272 -0.0196057 -0.00030474708
0.0051832721 -0.040560298 -0.0013616343
-0.03893863 -0.037753917 -0.00047215112
-0.020712772 -0.0584337 -0.0014868847
-0.082134426 0.10588207 0.022612797
0.0070961155 -0.067399353 -0.0018940675
0.0023078939 0.010753894 -0.00076973409
-0.099358849 0.046628729 0.012795719
-0.13972053 -0.018171228 0.019406337
-0.044962924 0.083189152 0.0040800595
-0.0080231987 -0.087355331 0.0004227171
-0.022144973 -0.1281673 0.018632753
-0.10599365 0.020065024 0.011729669
-0.018142048 -0.10028119 0.012877298
-0.10335444 0.071492925 0.019377496
0.0043263179 0.095291033 0.012168541
-0.088906065 -0.081706524 0.016029857
0.11180323 0.026001187 0.023242351
-0.038781215 0.051521517 -0.00067913358
0.051860221 -0.1131096 0.02085563
-0.10977487 0.036996167 0.014642606
0.013603995 0.1042472 0.014775243
0.071409002 -0.057528209 0.014559327
-0.054103743 -0.060519021 -0.0019265729
-0.051774524 -0.012701542 -0.0013376797
-0.0019623421 0.022057094 -0.0010938346
-0.10396061 0.0077935127 0.0086181955
0.018673502 0.073595092 -0.0027248848
-0.1396701 0.017806511 0.020323658
0.048312224 -0.052619688 -0.002250043
-0.1122422 0.012543166 0.014343347
0.0037811322 0.086156435 0.0020854513
-0.12402077 -0.062358595 0.018243387
0.10416084 0.013070141 0.018874347
-0.11642292 -0.040873863 0.016609933
0.026063299 0.081556901 0.0041566556
0.092503965 0.061936863 0.020141834
0.029513154 0.010055916 0.00017905365
0.082508646 -0.063533977 0.017681083
0.043907598 0.11508405 0.018677052
0.060997181 -0.107655 0.019666295
0.022270901 -0.056632079 -0.0013981917
-0.058635443 0.056831986 -0.0013528345
0.00069502532 -0.094316989 0.011000067
-0.090130374 -0.043417752 0.0037453682
-0.01181379 0.021288656 1.2394817e-05
0.00066711777 -0.099318191 0.012904005
-0.047884099 -0.093404703 0.012759537
-0.031539727 0.015209333 -0.0010486306
0.049284495 -0.10290881 0.019843575
-0.10285922 -0.082120597 0.019508528
0.022412641 -0.10519426 0.01550178
-0.07825879 0.083455846 0.015092635
-0.084356189 -0.059329614 0.010477706
0.080378741 0.045311607 0.014733233
-0.095600933 0.063894562 0.015643002
0.078885064 -0.075476468 0.018963374
-0.093881778 -0.040124588 0.0064224578
0.087675489 -0.058726739 0.019277986
-0.091759928 0.034979679 0.0018035772
0.022142984 -0.047585227 -0.0017825339
-0.11882671 0.038467638 0.018553467
0.072254851 -0.085753597 0.020471621
0.0040872721 -0.10425729 0.014614232
0.063692316 -0.061808676 0.012424348
0.040918946 -0.029195581 -0.00014608924
-0.1180488 0.032987576 0.016783936
0.016854268 -0.0046702526 0.00057110161
0.0051115276 0.034276895 -0.00038500037
0.11754899 0.0039714756 0.01976514
-0.055249043 0.030100105 -0.0017636674
-0.028151669 -0.11388737 0.016580379
0.0138181 -0.12682891 0.018250272
-0.074387386 -0.019357316 -0.0013738405
0.032352947 0.021448638 -0.0003958827
0.054824635 -0.023290496 -0.0016503767
0.068487763 -0.089507148 0.019527165
-0.072839931 0.077529676 0.013325924
0.08197847 -0.086075753 0.020852895
-0.046486266 -0.12354012 0.021260509
0.047611084 0.011800075 -0.0004626771
0.0096718799 -0.11057701 0.015959423
0.065885201 0.06895908 0.014827032
-0.023435073 -0.092176802 0.0088909883
0.026811389 -0.027373467 0.0002184016
-0.0058763931 0.020581618 9.9761564e-05
-0.041995518 -0.032786593 -0.0012003704
0.051330157 0.036929656 -0.0014949788
-0.060520224 0.030687492 -0.0019722369
-0.06310422 0.096011609 0.016574122
-0.064118147 0.01793582 -0.0010982431
0.097997613 -0.021177331 0.018339403
0.060722124 -0.05930429 0.011059201
-0.090371922 0.038616415 0.0031624255
-0.094604239 -0.04328227 0.0091470303
-0.071775563 0.060198188 -0.00025491527
-0.10374871 0.090922862 0.020679818
0.06864731 -0.049799573 0.011847354
-0.13318305 0.034374677 0.022916498
0.0062904209 -0.0043797269 0.00050135417
-0.097232595 -0.045791347 0.011595403
0.059120931 0.052762661 0.0020723026
0.112717 0.028480079 0.019544665
-0.090854898 -0.074405789 0.014889318
-0.011985723 0.053942606 -0.0022151717
0.011638336 0.054487631 -0.0024997285
0.0080568912 0.058154766 -0.0026120434
0.042838342 -0.033241004 -0.0013647953
0.0050484198 0.10242261 0.013654709
-0.011294313 0.042531326 -0.00060136197
0.0068824729 -0.050643634 -0.0010490906
-0.11543452 0.03893254 0.01663301
-0.044150956 -0.064628437 -0.0028294092
0.060406584 -0.068825506 0.013919096
0.026490165 0.10347744 0.015760068
-0.12761883 -0.028998351 0.019973869
0.034371793 -0.067325026 -0.0021958558
0.047288068 0.11407313 0.022460114
0.047218088 -0.069716364 0.0054772059
-0.0045210496 -0.056269079 -0.0021657776
0.038361605 -0.070362836 0.0015351129
-0.077588052 -0.079472497 0.013969662
0.0070111956 -0.037181422 -0.00030829504
-0.080646344 0.047376819 -0.00081411377
-0.096937403 -0.030556601 0.0068744449
-0.051048618 -0.10440371 0.015402621
0.078196146 -0.053159766 0.014854673
0.015468972 -0.11575587 0.018003371
-0.066945113 -0.040202267 -0.0020130575
0.10582218 0.001495603 0.019232536
-0.070681229 0.0017182713 -0.0012849618
0.022164717 -0.016020117 -0.00036333469
-0.036246769 -0.063342266 -0.0026526053
0.015600361 -0.056833077 -0.0022393281
-0.050718617 0.075876713 9.1604743e-06
0.054963075 0.015844367 -0.0010086414
-0.00019959736 -0.12725694 0.021526165
0.023138726 0.060253367 -0.0028362721
-0.039876081 0.12470639 0.022419743
0.077240735 0.0029508043 0.0029771947
-0.059541397 -0.058230065 -0.0019430022
-0.06730333 0.046867732 -0.0014306355
-0.094341263 0.056508712 0.013919029
-0.017320156 0.070527442 -0.0028731781
-0.10001062 0.052677859 0.014862678
0.081259616 -0.034278691 0.014185648
-0.066350341 0.11684057 0.021665495
-0.099460617 -0.02158579 0.0051216995
0.037486408 -0.032844711 -0.0011604523
0.031407215 0.10754237 0.017642412
-0.059495661 0.1099565 0.020065106
0.028114345 -0.017877609 0.00058376358
-0.13648695 -0.035049789 0.019258816
-0.03510581 -0.070409566 -0.0030225303
0.061140012 0.010540572 -0.002246988
-5.2539152e-05 0.018673833 0.00011130504
-0.063080721 0.078085877 0.0098774703
-0.013096807 -0.10010627 0.011880573
-0.0040637562 -0.071971536 -0.0020356318
0.080679648 -0.013368469 0.0098236818
-0.037308592 -0.0037052594 -0.0010342483
-0.061778285 0.006059309 -0.00087980361
0.052616697 -0.052978482 -0.001295842
-0.01412581 -0.12399545 0.02066361
-0.020240927 0.013392913 -0.00090799294
-0.093419977 -0.048879877 0.011744247
-0.055043306 0.067270227 -0.0023624976
0.038272232 0.0029812492 0.00026817026
-0.062504977 -0.11755809 0.02123493
0.058414403 -0.094469041 0.018426038
-0.066761605 0.079812557 0.012811737
-0.035826586 0.041980024 -0.00039808749
-0.026848719 0.051911168 -0.00075397902
-0.08266104 0.072035939 0.014208267
0.0065351226 0.087875389 0.0048264801
-0.050410599 -0.029516354 -0.00033482476
0.089676663 0.052976348 0.01777528
0.033472542 -0.017169926 -0.00026106805
-0.00059509842 -0.10444033 0.013519146
0.070553176 -0.035654012 0.0050401459
0.042412747 -0.084580861 0.012892807
-0.07737346 0.099866897 0.019345393
0.021192705 -0.098444462 0.014343415
0.001496987 0.10413636 0.014040021
0.071287975 -0.038489737 0.0081195431
0.099944472 0.001460107 0.01818222
0.079520784 0.015254565 0.0099360161
-0.13231021 -0.018454954 0.021157216
0.066744886 0.095818169 0.021812126
0.049776964 0.032637678 -0.0023965621
0.078481637 0.026248422 0.010330096
-0.12382243 -0.0064103398 0.01785459
0.0092864297 0.029973939 -0.00032300613
-0.03236622 0.045975849 -0.00052066206
-0.11672425 0.023968779 0.015592098
-0.02060242 -0.11104743 0.015400223
-0.040386152 -0.12589464 0.017855668
0.071828812 0.065969154 0.015791709
-0.10119673 -0.018190987 0.0083172536
0.073421083 0.014773779 0.00056854996
-0.11128896 0.020297162 0.013594685
-0.069431379 -0.11582112 0.020436551
-0.12176385 -0.043106668 0.018503761
-0.12454545 -0.052209511 0.021307323
0.088107944 -0.082613043 0.019474376
0.018959908 -0.085341081 0.0059014475
-0.060810775 -0.024582654 -0.0015037254
0.047882318 -0.0098488312 0.00016938358
0.014091207 0.019555079 -0.0010805943
0.084134892 -0.0062576025 0.012924438
0.0076049413 0.075525641 -0.0030266158
0.06398958 -0.00072904845 -0.0012083427
0.051971652 -0.10587251 0.020301934
0.029559536 -0.10622256 0.016703123
-0.074757256 0.1032777 0.019955354
0.082927495 -0.029291449 0.013247466
0.1093775 0.016500082 0.020846035
-0.026830597 0.11333342 0.018045718
-0.03447428 -0.015508888 2.7203496e-05
0.059899591 0.081570767 0.016319819
0.011176635 -0.072832987 -0.0028885235
-0.018014858 0.03284099 -0.00028807033
-0.045073226 -0.069316417 -0.0021399437
0.052388225 0.0066871755 -0.00053276878
0.091064408 -0.07716243 0.022466842
-0.014526921 -0.032356229 -8.0188693e-05
0.059229843 -0.054363355 0.0032216604
0.07943067 -0.043485999 0.013833803
-0.035183214 -0.12016428 0.019064564
-0.015091548 -0.10383224 0.013086112
-0.068200827 0.11003325 0.021590777
0.054414537 -0.028440636 -0.0017888258
-0.065771669 -0.072530523 0.0062021213
0.029582933 -0.077097386 0.00083371869
-0.14014442 0.013990327 0.021172486
-0.014758873 0.096490085 0.012187462
-0.036134023 -0.086738765 0.0051393169
-0.11445275 -0.0053925095 0.014803715
-0.0053819371 -0.063896753 -0.0017299007
0.01051002 0.078080371 -0.0023249399
-0.0095666461 0.13030219 0.019583879
-0.11210205 0.07134673 0.021011874
0.00071127928 0.11664505 0.019002752
0.083476022 -0.016262008 0.013317374
-0.071880221 0.064205669 0.0031185774
0.11364112 -0.0081939688 0.021994986
-0.090165831 0.024235114 -0.0015418524
-0.072979748 0.070634663 0.010737738
0.078952305 -0.029889403 0.012799535
0.025436049 -0.045628734 -0.00083803327
0.034460738 0.06768775 -0.0020481385
-0.06460432 0.055324741 -0.0015582216
-0.054509215 -0.11348663 0.018653501
0.02913313 -0.0057064611 0.00068252103
-0.017535908 -0.04105828 -0.0014213906
-0.021347115 -0.040022492 -0.0013839046
-0.073102817 -0.082790025 0.01297511
-0.069290504 -0.032998908 -0.0010446885
-0.038273856 -0.096507058 0.012680246
-0.03634616 0.060859151 -0.0011024082
-0.13376497 0.043089073 0.019761914
-0.032313842 -0.074436657 -0.0021795768
-0.030029913 -0.024894755 -1.5106145e-05
0.03706127 0.030646615 -0.0019446744
-0.055243853 -0.051979207 -0.0022472385
-0.023373341 -0.10697637 0.014199626
-0.023125324 -0.051075749 -0.0019357456
-0.109197 0.014837132 0.012536
0.0011142534 -0.018957671 -0.00062058424
0.068394549 0.037029747 0.0019301496
0.051155444 0.013548605 -0.00063258072
-0.017630441 0.038459439 -0.0015240252
-0.011087211 0.095291883 0.011551092
-0.093127646 -0.066034019 0.014648219
0.022495594 0.083479255 0.0043789446
0.0054176501 0.04437644 -0.00087667059
-0.099106684 0.070020854 0.017917842
0.0076466538 0.089800142 0.0081319939
-0.091296315 -0.034975052 0.0009212381
0.030550864 -0.05468446 -0.0022720536
-0.081669003 -0.078281567 0.013696607
0.041953765 -0.067793325 0.0014858871
0.11761557 -0.014245255 0.020112107
-0.023121618 0.056438062 -0.0021644174
0.089596041 -0.065321699 0.020078577
-0.041299947 -0.0062507782 -0.0011083508
0.009813536 -0.077024594 -0.0026587546
-0.0081722513 0.092715248 0.0089409426
-0.067615815 0.030689035 -0.0022601895
-0.00016492289 -0.10985455 0.015223976
-0.096383035 0.086380616 0.020951129
-0.080227986 -0.10253909 0.019524409
-0.011731152 0.099597968 0.013290086
0.0595694 -0.00087321183 -0.00086764211
-0.0095623033 0.062743336 -0.0014878961
0.026758373 -0.113639 0.019553661
-0.002542289 -0.021401148 -0.00070029183
0.10044748 -0.011322488 0.017695252
0.054698378 0.087897316 0.015904559
-0.053437427 -0.10783212 0.017678073
-0.050632242 -0.053135294 -0.0013942636
-0.12086824 0.018674735 0.017393358
0.069169067 0.061128963 0.014120822
0.0033845438 -0.083304733 -0.0012846041
0.061382905 -0.05659797 0.0078096651
-0.050221987 0.079910167 0.0030812162
-0.095413193 -0.011520952 -0.00057649659
-0.099249095 0.013264142 0.0028624949
0.048921231 0.11017449 0.022288989
-0.059182636 -0.0058639906 -0.0007298385
-0.010020374 -0.0028330572 -0.00063302781
-0.038084894 -0.051041905 -0.0011006002
0.045282573 0.015629623 -0.0015747345
0.062324561 0.034129191 -0.0020214112
-0.076183125 -0.036232315 -0.0025884283
0.0022511315 -0.022780554 0.00029726862
0.10031294 0.050295718 0.02086217
-0.097271763 0.0036965234 8.5317486e-05
0.053670812 -0.0073332805 -0.00040848661
-0.004435909 0.085550822 -1.4471399e-05
-0.086351395 0.021186853 -0.0025568821
0.11395156 0.024379177 0.019360945
-0.095251486 0.072209492 0.017276319
-0.12960508 -0.014339638 0.019973714
-0.0024284828 0.034480192 -0.0015126453
0.040441565 0.10598456 0.019409262
0.04285736 -0.06046088 -0.0019898908
0.11322393 -0.012153354 0.023066577
-0.02835216 -0.10313974 0.013233075
-0.096371278 0.015135648 0.00066560501
-0.018762192 0.095698841 0.011876728
-0.030342221 0.00071243895 -0.00093986158
0.049186267 -0.038002837 -0.0010061485
-0.043594088 0.080296397 0.00062899565
0.086580873 0.056334559 0.018277749
-0.12803516 0.046479814 0.022552427
-0.068552703 -0.017321156 -0.0019360628
0.093756631 0.032761611 0.017584084
-0.073878594 -0.011333906 -0.0013295982
0.1015784 -0.025888555 0.019874083
-0.10104074 0.016356189 0.0076649678
-0.014362052 0.057342656 -0.0023225888
0.091467433 0.03889963 0.017455842
-0.015227199 0.0055213189 -0.00078480534
0.017979784 0.053240247 -0.0013173285
0.029207088 0.071531057 -0.0019284001
0.041931171 -0.080654584 0.012622743
-0.10536894 0.0050935755 0.011274381
0.015440797 0.089521319 0.010238122
-0.064905487 -0.0090725832 -0.00091102323
0.058945786 0.068958715 0.012223496
0.10630757 -0.018704493 0.020949626
-0.043452933 -0.11861212 0.020165339
0.062682934 0.048873425 0.0027636457
0.020192593 -0.042832218 -0.0014975265
-0.052284304 -0.095510431 0.013028356
0.062367745 0.10595334 0.022390839
-0.012645273 0.091769293 0.0076470664
0.077711202 -0.034793649 0.012150434
0.038884554 0.046102129 -0.0025965539
-0.098815188 0.017084699 0.0044953991
0.082345165 -0.05481229 0.016229268
-0.03924989 0.087389231 0.0080763083
0.019357421 0.12629285 0.019247329
-0.035628513 0.05694817 -0.0008597679
0.070415929 0.0056123929 -0.0015093563
0.025126494 -0.11752892 0.020680107
0.041714378 0.042422872 -0.0025322237
-0.055721052 0.11988378 0.018212568
0.06037616 -0.075186878 0.014332389
0.056230716 -0.078584164 0.014212055
-0.013116934 0.031251132 -0.0013016184
-0.054026149 0.0074536488 -0.0016378534
-0.043880183 -0.028799616 -0.0011539771
-0.10027453 -0.0048033847 0.0030271802
0.016615331 0.010308024 0.00034322284
-0.023634937 0.11687285 0.018175874
-0.067925259 0.024042243 -0.0022558903
0.077684291 0.021569198 0.0072626919
-0.10247161 -0.065131754 0.016860232
0.095104054 -0.042221397 0.018378617
-0.037680365 0.025084127 -0.00024385203
-0.050117813 -0.0051909667 -0.00036873273
0.095599204 -0.015625022 0.016319877
0.078598119 0.084558487 0.021935917
-0.0054304167 -0.013088867 0.0005044514
-0.023383062 -0.01553808 -0.00078169227
0.036475971 -0.10101941 0.016162563
0.051769916 0.10750152 0.021983907
-0.14164829 -0.0076542185 0.02003582
0.018145062 0.023860205 -0.0012719632
0.041157767 -0.11174384 0.021347627
-0.084770307 0.066114709 0.013399496
0.0090120416 0.094155841 0.012054918
0.049581558 0.1029128 0.020019699
-0.12346604 -0.0022633998 0.017641982
-0.082274213 0.0078593735 -0.0026077013
0.0065822215 -0.073835202 -0.0021883226
-0.061076812 0.015179775 -0.0019432328
0.085078344 0.021336457 0.013006326
-0.030733928 0.010989585 -0.0010180557
0.063926004 -0.075130194 0.016090896
-0.00027132325 0.0063862163 0.0004533958
-0.068253651 -0.08448454 0.012486294
-0.056790505 -0.047294889 -0.0019345368
-0.021046566 -0.067580983 -0.0027582138
0.071508557 0.032872319 0.0032956963
-0.076545924 0.10865506 0.022585813
-0.079922006 0.023810931 -0.0016428012
0.11238983 -0.028242009 0.023440477
0.018326569 0.087216474 0.0077283438
-0.012930941 0.0097998939 0.00038757882
0.06081504 0.065076172 0.011720019
-0.056132093 -0.011509297 -0.0014999059
-0.11002474 0.029309578 0.014756987
0.096106425 -0.063811719 0.021773603
0.049814478 -0.094877288 0.016824517
0.057382509 0.063387632 0.010261305
0.0025029061 0.031055707 -0.00026658576
0.10773974 -0.049300209 0.020033933
-0.047781691 0.048370671 -0.00060236285
0.03224469 -0.063849241 -0.0017068037
0.043808449 0.0030948934 -0.00099280244
-0.026255263 0.0016707978 -0.0010120162
0.065573379 -0.050585359 0.0095491037
0.1169249 0.02046622 0.020524636
-0.039594185 -0.11876416 0.018863376
0.05506767 -0.064441778 0.0099180425
-0.1131711 -0.030794421 0.014672083
0.015313501 -0.119067 0.020133868
-0.086094007 0.052250147 0.006249371
-0.092846856 -0.077810012 0.016908392
-0.066598266 -0.091628119 0.014896088
-0.030293535 0.081116587 -0.0003897459
-0.0030730527 -0.096304409 0.011679822
-0.11143724 -0.056211904 0.017931489
0.069396153 0.0094808005 -0.00069875451
-0.039937321 0.081704341 0.00081973523
-0.057518169 -0.11090478 0.018247033
0.08755637 0.041000515 0.016458459
-0.06563583 0.034378171 -0.0012457683
-0.066482097 0.083835475 0.012889481
0.040010162 -0.0010907515 -0.00067202118
-0.070660979 0.0095461262 -0.0012665659
0.10229066 0.057602786 0.023351189
0.07005588 0.051946625 0.012746423
0.028597139 0.04806754 -0.0013676001
-0.024441702 -0.028361736 -3.8797767e-05
-0.084778145 -0.025249135 -0.0026935996
-0.0086177904 0.046307102 -0.0019391752
-0.089653723 0.06699609 0.013905266
0.025380537 0.089785889 0.011474706
-0.0041968361 0.10581795 0.015307955
0.023021102 0.031273894 -0.00167016
0.1010067 -0.015654463 0.018948887
-0.069412664 0.072108679 0.0094562061
-0.050127968 0.016451743 -0.0015102846
-0.02548054 -0.036523506 -0.00031510234
-0.010085631 -0.064327851 -0.0025433882
0.01053319 0.0025190166 -0.00058759883
-0.073560305 -0.032585032 -0.0022998978
0.036564481 0.093315743 0.015038037
0.010474554 -0.03552461 -0.0011342666
0.065691009 -0.03336978 -0.00082902412
0.059379525 0.047669642 -0.00020635435
0.057710625 -0.036225751 -0.0012364341
-0.095613472 0.038076818 0.0082859285
0.10568573 -0.010001481 0.019353209
-0.064610474 0.051473051 -0.0025017909
0.090629652 0.067950986 0.021724651
-0.036691904 -0.0093696741 -0.00098769157
0.067984223 0.028460033 0.00035629509
0.059272196 -0.023835229 -0.0010128592
0.059071485 0.016102446 -0.0022869573
-0.10049231 -0.023615414 0.0087541984
-0.0688674 0.018833281 -0.0013026035
-0.019235078 0.0033943627 0.00030910803
0.032795176 0.073771104 0.00019702739
0.026735099 -0.031306937 2.6574224e-05
0.026686469 -0.073630124 -0.0017018957
0.054912802 0.071157128 0.011688827
0.030679841 -0.073539898 -0.00079992227
0.042053103 0.060635973 -0.0013249719
-0.080201268 -0.052611873 0.0016177177
0.022480575 -0.035382032 -0.0011190569
-0.0071697617 0.00015623483 -0.00063992944
-0.12442894 0.042887751 0.020915439
0.087609068 -0.0079700947 0.014329837
-0.023582688 0.039166376 -0.0014763791
-0.099075958 0.021332137 0.0060810572
0.026724778 0.0068788836 0.00032906974
-0.0058281026 0.060743641 -0.0025251228
-0.035824746 -0.046923701 -0.00090808253
-0.074067824 1.6108796e-05 -0.0023003584
0.072623841 0.048874512 0.012894015
0.026930002 0.09845721 0.014290696
0.096462056 -0.069263026 0.019407447
0.038009077 -0.052958451 -0.0015474185
-0.03042369 -0.070775002 -0.0021389886
-0.13972785 0.0010350201 0.022140861
-0.02923681 -0.065355562 -0.0026953123
0.037471596 -0.024119472 -0.00065372098
0.015467356 0.045660026 -0.0011522165
0.063981138 0.017812395 -0.0024510741
-0.0052975421 0.056131069 -0.0012189902
-0.078628793 0.11083651 0.019596169
-0.019357257 0.0075053149 -0.00082004763
0.10478182 -0.015115726 0.020233706
0.05555946 0.010752145 -0.00097847532
-0.064394355 -0.10084404 0.017008319
-0.025761861 0.061460234 -0.0011890836
-0.075471543 0.080696121 0.014669077
0.0011670036 -0.03967078 -0.00039391499
0.013808478 -0.077396601 -0.0013170122
-0.0086474987 0.006897999 0.00044314977
-0.087429851 0.071135812 0.014258688
-0.024344262 -0.043174405 -0.001545981
0.091406368 0.074930817 0.019447407
-0.11052886 -0.082089029 0.018222483
-0.082609341 0.086690135 0.017675359
0.031563077 -0.12266009 0.018930923
-0.00080754206 -0.036000442 -0.0002068152
0.040396586 0.012982314 -0.00023867999
-0.1239169 -0.039059542 0.019596556
-0.083995499 -0.031107903 -0.0016403118
0.052203469 -0.086624607 0.016189875
-0.09945751 -0.08827237 0.02090529
-0.028135262 -0.12492788 0.020423895
0.0014726191 -0.0056489776 -0.0005261185
0.042253047 -0.088457003 0.013774818
-0.077595688 0.043528352 -0.0012642043
-0.033575565 -0.066751234 -0.0019870414
-0.11657012 0.0069063753 0.014645306
0.022059353 -0.029447408 -0.00082672917
-0.06338086 0.10883915 0.02044853
-0.047641691 0.060954805 -0.0022584398
0.061866555 -0.035074897 -0.00069692545
0.02006438 0.081717044 0.0015973063
-0.078142986 -0.002296417 -0.0024428281
-0.09542425 0.044995852 0.011227444
-0.048782229 0.01246802 -0.00043048692
0.060126126 0.10838845 0.019680966
-0.029638816 -0.1087144 0.015867798
-0.072915874 -0.1008494 0.017614473
0.054111719 -0.060578551 0.0048386808
0.086458132 0.016844179 0.013177171
-0.07937891 -0.0069319615 -0.0016543693
0.10734761 0.052730113 0.020802937
-0.053091757 -0.017134126 -0.0013193295
-0.035575412 -0.040742226 -0.0014677217
0.098968163 -0.030789467 0.018408775
-0.10654188 -0.027291078 0.013288468
0.0439234 0.03334666 -0.0012308687
0.036726676 0.11307897 0.021144236
-0.055753708 0.047882274 -0.00092941138
-0.068602443 0.076244801 0.010924485
-0.10809632 -0.052539501 0.01562204
0.058982644 0.056207664 0.004282624
-0.12864202 0.042713746 0.021139506
0.016204279 -0.040904075 -0.0004873969
0.066410251 0.050684083 0.010039036
0.092331931 -0.0030838351 0.015754193
-0.064126194 0.065505281 -0.00091552798
0.022604847 -0.00097134733 -0.00048988266
-0.032556932 -0.095055118 0.011798963
0.017950516 -0.075265899 -0.0014025979
0.078580178 -0.013039838 0.0062306104
0.10313267 0.061448772 0.020555679
0.045188658 -0.091073677 0.015008264
-0.075568751 0.021618994 -0.0024830061
-0.062003192 -0.11128221 0.019853454
-0.0056335442 0.072317049 -0.0029686969
-0.063290738 0.091782548 0.014488555
0.030855086 0.0420812 -0.0022794383
0.090333611 0.018949237 0.014527767
0.11114623 -0.015683403 0.021485709
-0.13371103 -0.043592945 0.019219909
-0.00080720696 0.027864508 -0.00017980128
0.011098376 -0.082863063 -0.00057253626
0.076044641 0.011315148 0.0036116648
-0.044191647 0.10772257 0.016664695
0.034876991 -0.082544439 0.011542349
0.012683711 -0.048146252 -0.00089368178
-0.070273273 -0.069880843 0.0052263988
0.061718833 0.021332156 -0.0013258227
0.0080128331 0.083928078 0.0010733829
0.016616745 0.015491977 0.0001046094
-0.13864177 0.02572679 0.02028936
0.040162224 0.06400644 -0.0019465925
-0.019572303 -0.074107148 -0.0030006089
0.068690836 0.099812262 0.018804459
0.0052097021 0.017589856 -0.00096252374
0.055922143 0.082630172 0.015646592
-0.0038592345 0.11065366 0.01595648
0.095400065 0.069804281 0.019005917
0.017664179 -0.1012336 0.013844019
-0.015768168 -0.088408612 0.0030007847
0.045506779 -0.024039637 -8.2615661e-05
-0.043187719 -0.09182176 0.011809222
0.02578577 0.027897656 -0.0015708422
-0.038219087 0.034337662 -0.0013652097
-0.12738761 -0.058067247 0.019592993
-0.013210391 -0.068944573 -0.0027748905
-0.1151953 0.019705147 0.014729512
-0.01675579 -0.065725505 -0.0026485999
-0.10417145 0.015876852 0.010208441
-0.010756332 -0.031842295 -0.0010475017
-0.044505343 -0.047235347 -0.00094219198
-0.022412641 -0.080425858 -0.0027028061
0.042608209 -0.043948308 -0.0019825769
-0.073021412 -0.053658158 -0.0022135838
-0.032162055 0.024238199 -0.0011884639
-0.022842001 0.027283665 -4.837515e-06
-0.075253993 -0.08565142 0.014978113
0.068163216 0.014551486 -0.0020411424
-0.013904876 0.11149976 0.01620899
0.075537369 0.063960038 0.016412899
0.043951206 -0.064699195 -0.00048320601
-0.06809099 -0.061552074 -0.00044458278
-0.042366952 -0.081152357 -4.4041735e-06
0.11239453 0.0016076706 0.021635234
0.025724061 0.11431811 0.019146882
0.038038909 -0.076879211 0.0076607815
-0.0069839982 -0.0071682171 0.00050025695
0.032940682 0.11700355 0.020629954
0.069050565 0.079204187 0.017013894
0.096694633 -0.057905249 0.020995559
-0.020479418 0.099785738 0.01352074
-0.0036003806 -0.085794456 0.0010298531
-0.0058835256 -0.076057255 -0.002154334
0.03427957 -0.092632264 0.013608094
-0.10585983 0.011041576 0.011907253
0.04629162 -0.0063383542 -0.00076350896
0.072969787 -0.014620462 0.00027862101
-0.031659756 0.0064049172 -0.0010182213
-0.047006637 0.0085642086 -0.0013747299
0.053681001 -0.090342827 0.01646594
-0.057091411 0.016395705 -0.00084880088
0.081313103 0.0021611727 0.0092199706
-0.051341381 -0.091566272 0.01263864
-0.13899456 0.0083438717 0.018705811
0.077728435 0.053657137 0.01519526
0.034899361 -0.11997407 0.018335309
-0.061430823 -0.085936606 0.011774817
-0.040505171 -0.055142265 -0.0014186957
0.077643223 0.006845857 0.0050102961
-0.018130749 0.12810062 0.022016823
0.11159144 -0.024366304 0.021948969
0.085602716 -0.033885196 0.015534161
0.06196887 0.074944086 0.014273606
0.081371941 0.034199826 0.013789617
-0.061848991 0.11377942 0.020697078
0.078992784 0.049259845 0.014886239
0.01308928 0.123331 0.021884974
0.083220333 0.042526558 0.015209081
-0.019759215 -0.083221853 -0.0018660484
0.047424916 -0.087287799 0.015407572
-0.095256738 0.08268629 0.018867204
-0.074541643 -0.095443077 0.01640977
0.016791442 -0.03636365 -0.00021880484
0.051693361 -0.080928363 0.014672465
0.077441297 0.034371283 0.011347892
-0.10316957 0.086885147 0.020267971
-0.013423769 -0.0081919674 0.00046423523
-0.060152784 -0.0678657 -0.00055219838
0.045530509 -0.028994393 -0.00029013545
-0.13481006 -0.039836094 0.020321619
0.0063553746 -0.10029858 0.012649147
0.069147035 0.091339052 0.020093987
0.0073582865 0.063163444 -0.0017330748
-0.052896366 0.002028378 -0.00051652268
-0.022792077 0.12867774 0.018663149
0.0011511217 0.043936878 -0.0019357889
0.0057432447 0.10597204 0.015739327
-0.098545827 0.074797876 0.017772341
0.072353162 0.076744124 0.018240266
0.06773454 0.10023965 0.022864804
-0.13163155 0.014522489 0.020931905
-0.13688213 -0.031376787 0.020883493
-0.00971069 -0.092109896 0.007947959
0.014194123 0.0038919863 0.0004687956
-0.060905255 -0.009628633 -0.0017071848
0.016810158 -0.089223728 0.0084682256
-0.041376077 0.020477902 -0.0013236149
-0.02884643 0.089767322 0.0076347152
-0.0059520802 -0.10622405 0.013904811
-0.042256035 0.089033686 0.011032466
0.0546395 0.06225596 0.0063313078
-0.062177062 -0.098040603 0.015028572
-0.032073636 -0.089660659 0.0056524924
-0.035800882 0.075937383 -0.0025075092
-0.04299238 0.10064914 0.015244894
0.015175086 -0.019430308 -0.00053135288
-0.038713004 -0.04303813 -0.00072740216
0.014404564 -0.033105243 -0.00099847314
0.054269075 -0.046473298 -0.0020383287
0.055368178 0.11006565 0.019195773
-0.074058652 0.007752331 -0.0023457976
-0.062713221 -0.092729107 0.013705335
-0.1349183 -0.0029898062 0.020756153
-0.10131626 -0.069216758 0.016471069
-0.058935616 0.027006218 -0.00093718921
0.065222986 -0.017653815 -0.0010139291
-0.040019721 0.097804762 0.013223458
0.078738615 0.038000368 0.013365108
-0.020178258 0.091601349 0.0082456749
-0.0042834166 0.030787092 -0.0013494208
0.045519825 -0.11680134 0.019378036
-0.077750482 -0.070989817 0.012136252
-0.044622235 0.012864426 -0.0013434296
-0.047165327 0.04024104 -0.0015387645
-0.078047581 -0.021553971 -0.0015078041
0.021351153 0.11528645 0.019036233
-0.08699277 -0.033858828 -0.0016925851
0.0019889679 0.12973258 0.019417936
0.045895368 0.029641032 -0.0021542136
0.024183189 -0.041418459 -0.001445127
0.00018453765 0.08432132 0.00040221406
-0.011580422 -0.012281491 0.00037340354
0.089926027 0.010812394 0.015001504
-0.025069604 0.082151741 -0.0014130328
-0.12315727 0.038852412 0.020077929
0.062325634 -0.020121608 -0.0021087839
-0.12639026 -0.022613084 0.018340051
0.045393541 0.10797849 0.020917498
0.015329733 0.033346977 -0.0016426702
-0.10266214 0.063203305 0.016599841
-0.07008294 -0.098346137 0.016435152
0.063266955 -0.047716204 0.0026089549
0.0764696 -0.011410145 0.0029103281
-0.12336223 0.030166538 0.019171679
0.024318041 0.01072025 0.00016888822
-0.12272313 -0.047233757 0.020157665
0.042045735 -0.10658184 0.018680014
0.07934007 0.011317283 0.006921507
-0.050075002 -0.086880848 0.010725295
-0.072398394 -0.10706407 0.019367842
-0.088994667 0.083778083 0.017571535
-0.024458684 -0.019656073 0.00016067529
-0.06801182 -0.0020484664 -0.0020678241
-0.11900069 0.054030418 0.020820895
0.064567894 -0.054767668 0.0098809525
-0.13173777 0.038084485 0.022813458
-0.081059754 0.0010133223 -0.0025561936
-0.034208771 0.03450248 -0.0013572098
0.038756296 0.076498061 0.0064852471
-0.10446815 -0.086813062 0.021520648
-0.00090083887 0.047357202 -0.0020688488
0.050568249 0.027330671 -0.0012207262
-0.10863025 -0.038441524 0.014905863
-0.0010461137 0.088157229 0.0026241031
-0.0085062617 0.036866408 -0.0015412313
0.038085394 -0.06563554 -0.0017383685
0.010261128 -0.0394019 -0.00041026762
-0.10128501 -0.046887312 0.013892847
-0.089277506 -0.025978979 -0.0019326143
-0.06486097 -0.060009785 -0.0026947879
0.082964785 -0.058843337 0.01792261
-0.0028975569 0.039610632 -0.00048222649
-0.13005221 -0.025825273 0.019687025
0.043113481 0.066882193 0.00031729479
0.070172198 0.017564572 4.0613842e-05
-0.020672891 0.089462712 0.0043067494
-0.013082553 0.046475962 -0.0018740706
-0.052079268 0.063387729 -0.0025303559
0.019215416 0.048633173 -0.0011848867
0.0056650462 -0.11128631 0.015942859
-0.091967575 0.048324782 0.011015335
-0.08370667 -0.082152136 0.015776366
-0.093399249 -0.0080233207 -0.001688385
0.087345734 0.08491233 0.02031295
0.02438415 -0.019278819 0.0004590507
-0.019402986 -0.0031799246 0.00040172323
-0.10484277 0.076043405 0.0207993
-0.065859608 -0.036444411 -0.00095583458
0.041828047 0.070046648 0.0026994701
0.028329361 -0.059803799 -0.0016281311
-0.099099204 0.026407156 0.0067813043
-0.060636677 -0.029250149 -0.00053500244
-0.0073124454 0.04254679 -0.0017691291
-0.015223018 0.10210304 0.013177324
0.093353197 0.006201311 0.015179936
0.0070606545 0.0046277088 -0.00063697301
-0.1195838 -0.0024700612 0.016440738
0.018117394 -0.1227019 0.021613441
0.059254993 0.10068468 0.020549379
0.075630523 0.027114945 0.0076214871
0.023810193 0.015354365 8.6271932e-05
0.052499983 0.0570536 0.00088512589
-0.075193003 0.096204348 0.018697986
0.0067126029 0.079561517 -0.002175167
-0.02373933 0.10723202 0.01506348
0.06577833 0.010475416 -0.0023718637
-0.054282084 -0.030631535 -0.00033792818
-0.12005025 0.013337808 0.016922768
-0.027098877 0.0099330749 0.00014704361
-0.041845895 -0.0022104171 -0.00015355833
0.033502225 -0.051632866 -0.0021621448
0.073108517 -0.010079375 -0.00011309375
-0.095730565 0.098253436 0.021435309
-0.09990178 0.084381305 0.02134922
-0.030924689 0.092106812 0.010310055
-0.098369956 0.079190791 0.019670878
-0.011909174 -0.020623591 0.00032777555
-0.089306258 0.051624563 0.010540417
-0.056124225 -0.078783058 0.0056810649
0.080384254 0.0068611871 0.0095083434
0.051091898 -0.018003086 -0.0011605022
-0.094239853 -0.025927415 0.00067338644
-0.091870025 -0.030647352 6.8416019e-05
-0.01995448 -0.12164801 0.019862888
0.015700417 -0.0084355958 0.00063536718
-0.013976116 0.089228913 0.0032616849
-0.038948983 -0.079685956 -0.0014686796
0.065548196 0.073043108 0.015643751
-0.12112635 -0.030761801 0.017100381
0.055988595 -0.01950139 -0.0016512703
0.090206265 0.023129806 0.014739178
0.037423968 0.11755487 0.022389621
-0.11814343 0.027291099 0.017166261
-0.015813326 -0.04770641 -0.00083286955
-0.019825427 0.017404284 0.00015111919
0.0043291491 0.120956 0.019726338
0.059687838 -0.10488546 0.022346273
0.038678013 0.097850174 0.016730644
0.026600305 -0.056203105 -0.0014641914
0.0011531129 -0.048205946 -0.00093447918
0.041213665 0.093485683 0.015864592
-0.10271895 0.012602834 0.0076105092
0.058950316 -0.02821384 -0.0020806908
-0.032974266 -0.086294919 0.0017442463
-0.0093355607 0.057794426 -0.0012495487
-0.031739883 -0.082761392 0.00022449123
-0.027828928 -0.045181639 -0.00078139262
0.0050027613 -0.12246838 0.019558817
