ply
format ascii 1.0
comment PCL generated
element vertex 330
property float x
property float y
property float z
element camera 1
property float view_px
property float view_py
property float view_pz
property float x_axisx
property float x_axisy
property float x_axisz
property float y_axisx
property float y_axisy
property float y_axisz
property float z_axisx
property float z_axisy
property float z_axisz
property float focal
property float scalex
property float scaley
property float centerx
property float centery
property int viewportx
property int viewporty
property float k1
property float k2
end_header
0.12310953 -0.2067762 1.2550001
0.12550001 -0.2067762 1.2550001
0.12738095 -0.20595238 1.25
0.1297619 -0.20595238 1.25
0.13267143 -0.2067762 1.2550001
0.11832858 -0.20438574 1.2550001
0.12071906 -0.20438574 1.2550001
0.12261905 -0.20357142 1.25
0.12450001 -0.20275715 1.245
0.1259543 -0.20129144 1.2360001
0.12830856 -0.20129144 1.2360001
0.13066287 -0.20129144 1.2360001
0.13301714 -0.20129144 1.2360001
0.10637619 -0.20199525 1.2550001
0.10833333 -0.20119047 1.25
0.11071429 -0.20119047 1.25
0.11309524 -0.20119047 1.25
0.11547619 -0.20119047 1.25
0.11785714 -0.20119047 1.25
0.11975715 -0.2003857 1.245
0.12173619 -0.1997419 1.2410001
0.1236 -0.19893715 1.2360001
0.1259543 -0.19893715 1.2360001
0.12789334 -0.19829336 1.2320001
0.13024001 -0.19829336 1.2320001
0.13258669 -0.19829336 1.2320001
0.13537145 -0.19893715 1.2360001
0.13772571 -0.19893715 1.2360001
0.076514289 -0.19658287 1.2360001
0.07803905 -0.19451524 1.223
0.080368571 -0.19451524 1.223
0.082968585 -0.19515145 1.2270001
0.08627905 -0.1973781 1.2410001
0.088928573 -0.19801427 1.245
0.090640001 -0.19658287 1.2360001
0.092994288 -0.19658287 1.2360001
0.10005715 -0.19658287 1.2360001
0.10241143 -0.19658287 1.2360001
0.10476572 -0.19658287 1.2360001
0.10712001 -0.19658287 1.2360001
0.10947429 -0.19658287 1.2360001
0.11264285 -0.19801427 1.245
0.11501428 -0.19801427 1.245
0.11738571 -0.19801427 1.245
0.11937238 -0.1973781 1.2410001
0.12124572 -0.19658287 1.2360001
0.1236 -0.19658287 1.2360001
0.1259543 -0.19658287 1.2360001
0.12789334 -0.19594668 1.2320001
0.13024001 -0.19594668 1.2320001
0.13258669 -0.19594668 1.2320001
0.13493334 -0.19594668 1.2320001
0.13772571 -0.19658287 1.2360001
0.1411 -0.19801427 1.245
0.070238091 -0.19642857 1.25
0.071805716 -0.19422857 1.2360001
0.073380001 -0.19218573 1.223
0.075709529 -0.19218573 1.223
0.07803905 -0.19218573 1.223
0.080368571 -0.19218573 1.223
0.082698092 -0.19218573 1.223
0.085027628 -0.19218573 1.223
0.087357149 -0.19218573 1.223
0.089980014 -0.19281431 1.2270001
0.092317149 -0.19281431 1.2270001
0.094654292 -0.19281431 1.2270001
0.097702861 -0.19422857 1.2360001
0.10005715 -0.19422857 1.2360001
0.10241143 -0.19422857 1.2360001
0.10476572 -0.19422857 1.2360001
0.10712001 -0.19422857 1.2360001
0.10947429 -0.19422857 1.2360001
0.11228096 -0.1950143 1.2410001
0.11501428 -0.19564286 1.245
0.11700858 -0.1950143 1.2410001
0.11889143 -0.19422857 1.2360001
0.12124572 -0.19422857 1.2360001
0.1236 -0.19422857 1.2360001
0.1259543 -0.19422857 1.2360001
0.12789334 -0.19360001 1.2320001
0.13024001 -0.19360001 1.2320001
0.13258669 -0.19360001 1.2320001
0.13493334 -0.19360001 1.2320001
0.13772571 -0.19422857 1.2360001
0.14064667 -0.1950143 1.2410001
0.14462382 -0.19721429 1.2550001
0.069732383 -0.19265048 1.2410001
0.071282864 -0.19047716 1.2270001
0.073380001 -0.1898562 1.223
0.075709529 -0.1898562 1.223
0.07803905 -0.1898562 1.223
0.080368571 -0.1898562 1.223
0.082698092 -0.1898562 1.223
0.085027628 -0.1898562 1.223
0.087357149 -0.1898562 1.223
0.089686669 -0.1898562 1.223
0.09201619 -0.1898562 1.223
0.094654292 -0.19047716 1.2270001
0.096991435 -0.19047716 1.2270001
0.099733338 -0.19125335 1.2320001
0.10208001 -0.19125335 1.2320001
0.10442667 -0.19125335 1.2320001
0.10712001 -0.1918743 1.2360001
0.10947429 -0.1918743 1.2360001
0.11228096 -0.19265048 1.2410001
0.11464477 -0.19265048 1.2410001
0.11700858 -0.19265048 1.2410001
0.11889143 -0.1918743 1.2360001
0.12124572 -0.1918743 1.2360001
0.1236 -0.1918743 1.2360001
0.12554666 -0.19125335 1.2320001
0.12789334 -0.19125335 1.2320001
0.13024001 -0.19125335 1.2320001
0.13258669 -0.19125335 1.2320001
0.13493334 -0.19125335 1.2320001
0.13772571 -0.1918743 1.2360001
0.14064667 -0.19265048 1.2410001
0.14404762 -0.19404761 1.25
0.1470143 -0.19482383 1.2550001
0.069732383 -0.19028668 1.2410001
0.071282864 -0.18814 1.2270001
0.073380001 -0.18752667 1.223
0.075709529 -0.18752667 1.223
0.07803905 -0.18752667 1.223
0.080368571 -0.18752667 1.223
0.082968585 -0.18814 1.2270001
0.085027628 -0.18752667 1.223
0.087357149 -0.18752667 1.223
0.089686669 -0.18752667 1.223
0.09201619 -0.18752667 1.223
0.094654292 -0.18814 1.2270001
0.096991435 -0.18814 1.2270001
0.099733338 -0.18890668 1.2320001
0.10208001 -0.18890668 1.2320001
0.10442667 -0.18890668 1.2320001
0.10712001 -0.18952 1.2360001
0.10947429 -0.18952 1.2360001
0.11228096 -0.19028668 1.2410001
0.11418286 -0.18952 1.2360001
0.11653715 -0.18952 1.2360001
0.11889143 -0.18952 1.2360001
0.12124572 -0.18952 1.2360001
0.1236 -0.18952 1.2360001
0.12554666 -0.18890668 1.2320001
0.12789334 -0.18890668 1.2320001
0.13024001 -0.18890668 1.2320001
0.13258669 -0.18890668 1.2320001
0.13493334 -0.18890668 1.2320001
0.13772571 -0.18952 1.2360001
0.14008002 -0.18952 1.2360001
0.14301048 -0.19028668 1.2410001
0.14584285 -0.1909 1.245
0.067857139 -0.18928571 1.25
0.069957145 -0.18852857 1.245
0.071282864 -0.18580288 1.2270001
0.073620006 -0.18580288 1.2270001
0.075709529 -0.18519714 1.223
0.07803905 -0.18519714 1.223
0.080368571 -0.18519714 1.223
0.082968585 -0.18580288 1.2270001
0.085027628 -0.18519714 1.223
0.087357149 -0.18519714 1.223
0.089686669 -0.18519714 1.223
0.09201619 -0.18519714 1.223
0.094654292 -0.18580288 1.2270001
0.097386681 -0.18656002 1.2320001
0.099733338 -0.18656002 1.2320001
0.10208001 -0.18656002 1.2320001
0.10476572 -0.18716572 1.2360001
0.10712001 -0.18716572 1.2360001
0.10947429 -0.18716572 1.2360001
0.11228096 -0.18792287 1.2410001
0.11418286 -0.18716572 1.2360001
0.11653715 -0.18716572 1.2360001
0.11889143 -0.18716572 1.2360001
0.12085334 -0.18656002 1.2320001
0.12320001 -0.18656002 1.2320001
0.12554666 -0.18656002 1.2320001
0.12789334 -0.18656002 1.2320001
0.13024001 -0.18656002 1.2320001
0.13258669 -0.18656002 1.2320001
0.13493334 -0.18656002 1.2320001
0.13772571 -0.18716572 1.2360001
0.14008002 -0.18716572 1.2360001
0.14301048 -0.18792287 1.2410001
0.14584285 -0.18852857 1.245
0.067857139 -0.18690476 1.25
0.069957145 -0.18615714 1.245
0.071805716 -0.18481143 1.2360001
0.073920004 -0.18421334 1.2320001
0.075957149 -0.18346573 1.2270001
0.078294292 -0.18346573 1.2270001
0.080631435 -0.18346573 1.2270001
0.082968585 -0.18346573 1.2270001
0.085027628 -0.18286762 1.223
0.087357149 -0.18286762 1.223
0.089686669 -0.18286762 1.223
0.09201619 -0.18286762 1.223
0.095040008 -0.18421334 1.2320001
0.097702861 -0.18481143 1.2360001
0.10005715 -0.18481143 1.2360001
0.10241143 -0.18481143 1.2360001
0.10518952 -0.18555905 1.2410001
0.10755334 -0.18555905 1.2410001
0.10991714 -0.18555905 1.2410001
0.11228096 -0.18555905 1.2410001
0.11418286 -0.18481143 1.2360001
0.11653715 -0.18481143 1.2360001
0.11889143 -0.18481143 1.2360001
0.12085334 -0.18421334 1.2320001
0.12320001 -0.18421334 1.2320001
0.12554666 -0.18421334 1.2320001
0.12789334 -0.18421334 1.2320001
0.13024001 -0.18421334 1.2320001
0.13258669 -0.18421334 1.2320001
0.13493334 -0.18421334 1.2320001
0.13772571 -0.18481143 1.2360001
0.14008002 -0.18481143 1.2360001
0.14301048 -0.18555905 1.2410001
0.14584285 -0.18615714 1.245
0.070238091 -0.18452381 1.25
0.072096191 -0.18319525 1.2410001
0.074160002 -0.18245716 1.2360001
0.076266676 -0.18186669 1.2320001
0.078613341 -0.18186669 1.2320001
0.080960013 -0.18186669 1.2320001
0.083577149 -0.18245716 1.2360001
0.085931435 -0.18245716 1.2360001
0.088285714 -0.18245716 1.2360001
0.090346672 -0.18186669 1.2320001
0.092693344 -0.18186669 1.2320001
0.095348574 -0.18245716 1.2360001
0.098098099 -0.18319525 1.2410001
0.10078571 -0.18378572 1.245
0.10315715 -0.18378572 1.245
0.10595238 -0.18452381 1.25
0.10789999 -0.18378572 1.245
0.11027143 -0.18378572 1.245
0.11264285 -0.18378572 1.245
0.11418286 -0.18245716 1.2360001
0.11653715 -0.18245716 1.2360001
0.11889143 -0.18245716 1.2360001
0.12085334 -0.18186669 1.2320001
0.12320001 -0.18186669 1.2320001
0.12554666 -0.18186669 1.2320001
0.12789334 -0.18186669 1.2320001
0.13024001 -0.18186669 1.2320001
0.13258669 -0.18186669 1.2320001
0.13537145 -0.18245716 1.2360001
0.13772571 -0.18245716 1.2360001
0.14008002 -0.18245716 1.2360001
0.14301048 -0.18319525 1.2410001
0.070238091 -0.18214285 1.25
0.072328568 -0.18141429 1.245
0.074699998 -0.18141429 1.245
0.076823808 -0.18083143 1.2410001
0.079187624 -0.18083143 1.2410001
0.081551433 -0.18083143 1.2410001
0.084185712 -0.18141429 1.245
0.086557142 -0.18141429 1.245
0.088928573 -0.18141429 1.245
0.091299996 -0.18141429 1.245
0.093671434 -0.18141429 1.245
0.11071429 -0.18214285 1.25
0.11309524 -0.18214285 1.25
0.11464477 -0.18083143 1.2410001
0.11700858 -0.18083143 1.2410001
0.11889143 -0.18010285 1.2360001
0.12124572 -0.18010285 1.2360001
0.1236 -0.18010285 1.2360001
0.1259543 -0.18010285 1.2360001
0.12830856 -0.18010285 1.2360001
0.13066287 -0.18010285 1.2360001
0.13301714 -0.18010285 1.2360001
0.13537145 -0.18010285 1.2360001
0.13828287 -0.18083143 1.2410001
0.14064667 -0.18083143 1.2410001
0.14404762 -0.18214285 1.25
0.077071428 -0.17904285 1.245
0.079442859 -0.17904285 1.245
0.08214286 -0.1797619 1.25
0.084523812 -0.1797619 1.25
0.086904764 -0.1797619 1.25
0.089285716 -0.1797619 1.25
0.11309524 -0.1797619 1.25
0.11547619 -0.1797619 1.25
0.11738571 -0.17904285 1.245
0.11937238 -0.17846762 1.2410001
0.12173619 -0.17846762 1.2410001
0.12410001 -0.17846762 1.2410001
0.1259543 -0.17774859 1.2360001
0.12830856 -0.17774859 1.2360001
0.13066287 -0.17774859 1.2360001
0.13301714 -0.17774859 1.2360001
0.13591906 -0.17846762 1.2410001
0.13828287 -0.17846762 1.2410001
0.1411 -0.17904285 1.245
0.11309524 -0.17738095 1.25
0.11547619 -0.17738095 1.25
0.11785714 -0.17738095 1.25
0.11937238 -0.17610382 1.2410001
0.12173619 -0.17610382 1.2410001
0.12410001 -0.17610382 1.2410001
0.12646382 -0.17610382 1.2410001
0.12882763 -0.17610382 1.2410001
0.13119143 -0.17610382 1.2410001
0.13355523 -0.17610382 1.2410001
0.13591906 -0.17610382 1.2410001
0.13872856 -0.17667143 1.245
0.14166667 -0.17738095 1.25
0.11309524 -0.175 1.25
0.11547619 -0.175 1.25
0.11785714 -0.175 1.25
0.1202381 -0.175 1.25
0.12261905 -0.175 1.25
0.125 -0.175 1.25
0.12687142 -0.1743 1.245
0.12924285 -0.1743 1.245
0.1316143 -0.1743 1.245
0.13398571 -0.1743 1.245
0.13635714 -0.1743 1.245
0.13872856 -0.1743 1.245
0.14166667 -0.175 1.25
0.12738095 -0.17261904 1.25
0.1297619 -0.17261904 1.25
0.13214286 -0.17261904 1.25
0.13452381 -0.17261904 1.25
0.13690476 -0.17261904 1.25
0.13928571 -0.17261904 1.25
0.13465153 -0.16907516 1.2468587
0 0 0 1 0 0 0 1 0 0 0 1 0 0 0 0 0 330 1 0 0
