ply
format ascii 1.0
comment PCL generated
element vertex 1241
property float x
property float y
property float z
element camera 0
property float view_px
property float view_py
property float view_pz
property float x_axisx
property float x_axisy
property float x_axisz
property float y_axisx
property float y_axisy
property float y_axisz
property float z_axisx
property float z_axisy
property float z_axisz
property float focal
property float scalex
property float scaley
property float centerx
property float centery
property int viewportx
property int viewporty
property float k1
property float k2
end_header
-0.091578819 -0.015032031 0.0015700754
0.065368466 -0.030139251 0.0065512299
0.049387857 -0.02682811 0.013173643
-0.037014365 -0.020482328 0.0064388504
-0.040165585 -0.018393813 0.005355495
0.06996882 -0.014287496 0.0096578142
0.065720603 -0.02593991 0.0010772661
-0.11027506 -0.014779606 0.0034945719
-0.086795315 -0.034054827 0.0076756366
0.056895543 -0.025163433 0.0007290233
-0.066699684 -0.027832873 0.0069754221
-0.094365433 -0.021025708 0.0062918491
-0.11543114 -0.012139212 0.0036283662
0.026535261 -0.022970229 0.013272569
-0.038810614 -0.021832414 0.0063399393
0.029149707 -0.013198148 0.0075785173
0.066621639 -0.012458919 0.0089510232
0.063961424 -0.015728394 0.0012482862
-0.072846554 -0.024841405 0.0074102292
0.065562353 -0.012334365 0.0096638007
-0.069082491 -0.025561493 0.008871262
0.0045906156 -0.014284933 0.0055709174
-0.069226906 -0.021137917 0.0060485643
-0.088635631 -0.0099447882 0.0024128233
-0.0066738059 -0.014916766 0.0043608043
-0.0092281243 -0.026710046 0.011378504
-0.07436417 -0.014063021 0.0015497024
-0.12266625 -0.025285512 0.00034735529
0.050482154 -0.029728537 0.0097202864
-0.092277028 -0.014185152 0.0065825395
-0.12114719 -0.024400201 0.0012432823
-0.11032593 -0.012491286 0.0027661286
-0.033692606 -0.01850336 0.0053893495
-0.10983907 -0.032477744 0.0055073048
0.046991542 -0.018364696 0.00091724074
-0.00023586056 -0.027398285 0.011080675
-0.091664717 -0.025138564 0.0067486404
0.046945222 -0.029684085 0.0094183572
0.024415122 -0.02180301 0.00075173238
-0.078047767 -0.02339476 0.0090038087
0.057060611 -0.02750475 0.013093757
0.011288607 -0.025405422 0.0010316996
-0.078441076 -0.032648962 0.0078641605
-0.057638399 -0.02849504 0.0063296119
-0.082346782 -0.016034005 0.0010147793
-0.11613069 -0.032288939 0.004270969
-0.030675747 -0.020210328 0.0066596987
-0.064428031 -0.02425896 0.0079552298
0.029886762 -0.018145612 0.0010720826
0.017754575 -0.029305963 0.0091409236
0.017300749 -0.020466756 0.00074116571
-0.06940756 -0.019202519 0.0045525273
-0.090786889 -0.024209261 0.0066434415
0.020566838 -0.029885948 0.0070491424
-0.084792532 -0.0091771362 0.0039503337
0.034892607 -0.022270758 0.013430676
0.018918846 -0.026288912 0.012460681
0.036840931 -0.028131215 0.0024765795
0.060078911 -0.011995993 0.0065853647
-0.094880179 -0.013707505 0.006108202
-0.054690663 -0.021075264 0.005336307
-0.026854143 -0.021757364 0.01002484
-0.10701703 -0.012661243 0.0011947654
-0.079098418 -0.022909921 0.008941398
0.0325085 -0.023492632 0.0008332734
-0.045004297 -0.019670932 0.0051120953
-0.022505715 -0.02637523 0.0099548819
0.057816975 -0.012192866 0.0089897253
0.030873829 -0.029351844 0.010159883
0.056915317 -0.028052466 0.0022086299
0.06599015 -0.02863482 0.011813305
-0.069838382 -0.01573235 0.0067754043
-0.086507365 -0.012630906 0.006991528
-0.085526541 -0.012941632 0.0071126353
-0.11396432 -0.031436458 0.0025621448
-0.10269254 -0.032285422 0.0048368513
-0.080308273 -0.010745734 0.0070045106
-0.11128175 -0.020473668 0.0040570879
0.071231723 -0.026068052 0.0056429226
-0.056271549 -0.027198493 0.0075538675
-0.083885275 -0.018268548 0.0082171224
0.0082121659 -0.026086919 0.012199356
0.058566619 -0.025811605 0.00092946325
-0.022642182 -0.027615853 0.0042222119
-0.10442001 -0.026748845 0.0042084139
0.056537427 -0.017314954 0.013696899
0.016428476 -0.016916564 0.0015411404
-0.081949919 -0.030730868 0.0098340213
-0.020212561 -0.022528891 0.0016862423
0.021877727 -0.019720888 0.00080207188
0.029551754 -0.021693159 0.00079467078
-0.080410153 -0.030544886 0.0077903969
-0.054505102 -0.023639727 0.0052539837
-0.097729966 -0.010849328 0.0061484361
0.033112392 -0.02551664 0.013170819
-0.11265295 -0.025178691 0.0022107014
0.010012118 -0.019286849 0.00076220982
-0.060436271 -0.023098722 0.0073995795
-0.082745574 -0.019019485 0.0082415007
0.063778475 -0.029968835 0.0094210058
-0.11190195 -0.026084963 0.0044234772
-0.10063208 -0.013901336 0.0053801043
-0.062424637 -0.024404701 0.007937056
-0.11416517 -0.033783518 0.0026217597
-0.02415061 -0.015605542 0.005764124
0.051229715 -0.029575394 0.004102448
0.026063386 -0.019595187 0.01292426
-0.016569871 -0.027220204 0.0033365681
0.062967345 -0.015251573 0.0014812489
0.027070731 -0.013172776 0.0075457515
-0.11509646 -0.033697892 0.0043532532
-0.11661997 -0.012628907 0.0016672318
0.060821328 -0.020324349 0.014294709
-0.085132197 -0.017105281 0.0015872638
0.050862219 -0.016066454 0.012902744
0.056863263 -0.0296185 0.0039821542
0.003671515 -0.014285185 0.0060892808
-0.07589265 -0.02530219 0.0092243114
-0.090914816 -0.03481894 0.0071651828
-0.015657563 -0.028211936 0.0071036462
-0.068797566 -0.024467748 0.0070930403
-0.06529291 -0.014541519 0.0067385323
-0.091587037 -0.012818769 0.001137278
-0.073665082 -0.029610012 0.0076857875
-0.1083938 -0.01277026 0.0011765842
-0.0026651938 -0.025420563 0.0010797151
-0.0626477 -0.023899876 0.0062851314
-0.033621415 -0.021860732 0.0065816268
0.068772309 -0.028618658 0.0088257119
-0.020851264 -0.02681249 0.0030650478
-0.049578954 -0.022811111 0.0062195091
-0.089725092 -0.025104724 0.0069102542
-0.089825653 -0.031239707 0.0093809916
0.033344388 -0.024386583 0.01338538
-0.079316042 -0.0095569268 0.0064423336
-0.074823156 -0.01924957 0.00283427
-0.070983201 -0.011094228 0.0043827873
0.049336888 -0.029653726 0.010148128
0.045105789 -0.029584136 0.010282972
-0.002016136 -0.028081123 0.0029263583
0.024420617 -0.014080129 0.0095467921
-0.11078648 -0.014545884 0.001450385
0.012867864 -0.022935992 0.012904139
-0.0030627702 -0.02926054 0.0080146622
0.056322537 -0.025900308 0.013848469
0.040164653 -0.030005097 0.0084148478
0.063706405 -0.012255766 0.004718123
0.049431212 -0.020861007 0.01386139
-0.10744931 -0.014431439 0.0027762221
0.0549917 -0.013052716 0.0036667062
-0.022611152 -0.02546932 0.010494451
0.0068558659 -0.021123827 0.00027877325
-0.091909334 -0.017239014 0.0054300791
0.012444448 -0.017709363 0.011936537
-0.099641174 -0.024590544 0.0067011993
-0.088418826 -0.016764674 0.0060347663
-0.0520491 -0.019535832 0.0060980925
0.0049340124 -0.024989363 0.00086343696
-0.099081278 -0.03432744 0.0079599191
-0.092113003 -0.0093214046 0.0042819399
-0.11374245 -0.013762455 0.0026985905
-0.094550081 -0.011059505 0.0015046943
-0.002074382 -0.014582368 0.0064640697
-0.0062778438 -0.025815833 0.011868411
-0.068324812 -0.029356606 0.0071819639
-0.011273032 -0.015878309 0.0028920132
-0.091923736 -0.029741164 0.0083736554
-0.063186072 -0.015470512 0.0068094572
0.050016001 -0.028454481 0.011827144
-0.0061903866 -0.029255714 0.0078115165
-0.11568404 -0.012659376 0.0012217258
0.030228723 -0.018842967 0.012878843
-0.081693403 -0.0093857395 0.0043578609
-0.074819729 -0.020156432 0.0037537795
0.066493936 -0.012439527 0.0052016973
-0.05190219 -0.020785037 0.0064623202
-0.10918217 -0.032068919 0.0034542345
0.041700669 -0.025470931 0.0011257449
-0.08004237 -0.022032369 0.0072702123
-0.11660077 -0.032461576 0.0021786129
0.072061591 -0.019463651 0.011455012
-0.10103897 -0.030297825 0.0052498179
0.044976462 -0.022422291 0.00080629374
-0.066246264 -0.028949223 0.0089294547
0.03818696 -0.017124366 0.0012593501
-0.090825312 -0.030779839 0.0069027417
0.049485464 -0.027786838 0.012511224
0.061167259 -0.026496595 0.0011749617
0.013063315 -0.02921254 0.0093426444
-0.011399232 -0.014872256 0.0054547028
-0.012547194 -0.015033761 0.0046610855
0.063661382 -0.011839393 0.0082758442
-0.073196761 -0.023121748 0.0072325883
0.024532646 -0.025732126 0.012820886
-0.078284718 -0.012299825 0.0013510849
0.014916508 -0.02965609 0.0079577416
0.0019609462 -0.018906219 0.01205899
-0.074404672 -0.019186292 0.0082138358
-0.005717482 -0.02571431 0.0011632727
-0.024156839 -0.021089252 0.0016802042
-0.1104694 -0.026011581 0.0046527688
0.0085700098 -0.02449297 0.00077888893
0.067652494 -0.012678184 0.0084415264
-0.016837455 -0.024408318 0.011181897
0.0084084487 -0.016096152 0.0023249243
0.058598842 -0.019318271 0.00059827021
0.071698941 -0.022901114 0.01178152
0.054205664 -0.019573929 -0.00024843423
0.04411887 -0.021973835 0.013718464
-0.012307081 -0.014997028 0.007541989
-0.015270023 -0.024062052 0.0014192142
-0.080227889 -0.010791018 0.0019835921
0.064787567 -0.011817075 0.0086806603
-0.077913016 -0.01296702 0.0073556313
-0.023685092 -0.019999187 0.0019295025
-0.080012806 -0.027832968 0.0077367341
-0.0010529461 -0.014630307 0.0071786642
-0.022160612 -0.021696582 0.011235198
0.072729126 -0.01912732 0.0088133905
-0.10256855 -0.033057466 0.0070199142
-0.096387766 -0.012693807 0.0055531412
-0.088450819 -0.013403697 0.0068498095
-0.079048887 -0.021540979 0.0060506985
-0.015264938 -0.026041782 0.010886447
-0.063665435 -0.031415682 0.0068413201
-0.077411458 -0.015297089 0.0077029103
0.015461061 -0.013986571 0.0046742205
-0.091300584 -0.016223997 0.0052420832
-0.11755574 -0.031058826 0.0021962519
-0.041265503 -0.021325586 0.0050740736
-0.1072906 -0.011467393 0.0016524538
-0.085904434 -0.034594305 0.007791101
-0.018483702 -0.025221948 0.0019997635
-0.081805468 -0.032134388 0.010147545
-0.029019769 -0.026376013 0.0062104249
0.070332572 -0.02327474 0.0020081413
0.032488227 -0.016267456 0.012035492
-0.086605079 -0.026316199 0.0075641526
-0.086309448 -0.025323948 0.0075273844
-0.017792465 -0.019993115 0.011225372
-0.034155782 -0.026644677 0.0072046993
-0.10109781 -0.010729207 0.0043454086
0.008423687 -0.029503796 0.0058431118
-0.023603868 -0.017235845 0.0089904293
0.025692489 -0.015536102 0.0022521466
0.069420442 -0.01439945 0.010691632
-0.068173654 -0.031631477 0.0095789833
-0.11266639 -0.030587766 0.0030866009
-0.10761724 -0.025873929 0.0050891815
0.028701067 -0.016375721 0.011920666
0.027464073 -0.023942355 0.00084488234
0.060966168 -0.020899665 0.00051373988
-0.083425976 -0.033315651 0.010323406
0.056142844 -0.029163972 0.011347562
0.012128206 -0.027587041 0.0022276863
0.028005395 -0.026630322 0.0015656023
-0.056334089 -0.022899445 0.0055512697
-0.063384913 -0.017159799 0.0070515051
0.035611995 -0.016013805 0.012041312
0.015756894 -0.022114694 0.00067140418
0.0064644534 -0.022861743 0.013110199
0.048093386 -0.024523718 0.00083850877
-0.075525008 -0.02097857 0.0059034415
-0.062003553 -0.031250868 0.0068124589
-0.048515685 -0.026049452 0.0059487177
0.019571086 -0.018288223 0.0010133518
-0.032246087 -0.02698363 0.0074114739
0.043727934 -0.022408279 0.00082140742
0.034309246 -0.029948898 0.0082289418
-0.12026568 -0.031833623 0.0014212334
0.049229424 -0.016817909 0.013095243
0.050377682 -0.029264065 0.0036501391
0.039662588 -0.01525741 0.011841923
-0.10572459 -0.01491604 0.0040713111
0.056937311 -0.012135731 0.0061283493
0.070939645 -0.022466086 0.0023515197
0.018259373 -0.028068645 0.0026690029
-0.079446033 -0.011413376 0.0070225815
-0.0010358286 -0.02320537 0.012454387
0.064385995 -0.017491449 0.00071677542
0.0037276035 -0.02127533 0.013436554
-0.078470185 -0.028796077 0.0097119324
0.02233856 -0.019852839 0.012870749
-0.030446922 -0.017644197 0.0058630854
0.0085251667 -0.01990382 0.012493884
0.04932528 -0.012438374 0.0086153354
-0.079789795 -0.033933878 0.0080247466
0.034202628 -0.030090984 0.00725416
-0.10399659 -0.02114043 0.0053514307
0.042332508 -0.028791334 0.011467803
-0.086312987 -0.030043399 0.0076194834
0.04299394 -0.028029244 0.012222357
0.017677212 -0.016559066 0.011632593
-0.074045658 -0.017295957 0.0018648402
-0.061552931 -0.030337006 0.008643426
-0.06938491 -0.019346511 0.0080219693
-0.072115861 -0.030862667 0.0075905779
0.065738671 -0.013323244 0.011283427
-0.098118544 -0.03005337 0.0075940927
-0.054584213 -0.02475933 0.0051873145
0.059500962 -0.029339623 0.0035830191
-0.0001558346 -0.020210169 0.00074068212
-0.0068532703 -0.029359661 0.0068977452
-0.071419887 -0.033830788 0.0077594798
-0.039935876 -0.019649087 0.0052630361
0.011969261 -0.022147402 0.00066018151
-0.0010673722 -0.024564672 0.00076222618
-0.056639846 -0.027596189 0.0057977196
-0.027845958 -0.027439192 0.0044112699
-0.0033518283 -0.023784 0.00071479904
-0.083633691 -0.0201026 0.0033911818
-0.0099460604 -0.028528336 0.0097205294
0.028278019 -0.027660286 0.011867844
-0.086707592 -0.009141854 0.0060720854
-0.095780365 -0.01809011 0.0057648369
-0.10969745 -0.014953472 0.0043269419
-0.086651519 -0.033519637 0.0098021794
-0.094002195 -0.034987345 0.0066350806
0.01858213 -0.028938696 0.010164794
-0.078301571 -0.0098138126 0.006595375
0.065740429 -0.029525807 0.010365006
-0.089594871 -0.019059844 0.0076752794
0.032403182 -0.014106951 0.010225501
-0.096162781 -0.014770009 0.0056340978
-0.090549871 -0.013479715 0.0063657132
-0.059622571 -0.022243774 0.0071639665
-0.071962088 -0.019715911 0.003967667
0.068678498 -0.02678371 0.0024396372
-0.1100456 -0.027355962 0.0042480938
0.04831123 -0.020557916 0.00070340437
-0.10417972 -0.014598113 0.0034551127
0.019243404 -0.022365417 0.013002379
0.014359737 -0.016867114 0.0015735356
-0.083262295 -0.025893487 0.00763206
-0.008121131 -0.023258302 0.00061400619
-0.055692688 -0.025486991 0.0054781092
-0.027538514 -0.02770602 0.0056346888
0.020781077 -0.019089468 0.00084781268
0.025687963 -0.021297472 0.00079687347
0.0059216032 -0.014239761 0.00569474
0.057801504 -0.014101103 0.012097178
0.0011241322 -0.01587786 0.0025535759
0.071876287 -0.025195448 0.0063058138
0.017032515 -0.029531505 0.0052297153
0.067834407 -0.024326559 0.00093445135
-0.090196244 -0.010367566 0.0062742755
-0.047284335 -0.024904838 0.0068481211
0.011108875 -0.014216267 0.0082170619
0.028729577 -0.013887502 0.0096830651
0.042376079 -0.012836564 0.0090325065
0.026178719 -0.018603591 0.012715188
-0.11050048 -0.02110392 0.0041351775
-0.077850692 -0.018286133 0.0082549769
0.06475123 -0.029974597 0.0051329001
0.048347488 -0.012825754 0.0045926934
-0.059165884 -0.023876121 0.005968736
0.028496381 -0.022134691 0.013294721
-0.030838812 -0.026614666 0.005393351
0.045816004 -0.029809915 0.0093089538
0.067904912 -0.02875516 0.0042330706
-0.10811935 -0.034521438 0.003888855
-0.056692109 -0.021158183 0.0067502004
0.057070352 -0.013555275 0.011494222
-0.10906067 -0.025947493 0.0049635982
-0.11108133 -0.03421003 0.0055425367
0.056033108 -0.015994065 0.013203548
-0.1037421 -0.033445004 0.0068123988
-0.059911527 -0.026428685 0.0079090167
-0.077018514 -0.02918626 0.0076613091
0.050380036 -0.018923325 0.00074881176
-0.079848528 -0.015634319 0.00074150367
-0.031930562 -0.026591966 0.0054665124
0.054189868 -0.015263934 0.012695268
-0.060107306 -0.017941242 0.0068102786
-0.021289796 -0.022687396 0.011298183
0.032322183 -0.025892068 0.00128736
0.04873826 -0.014436018 0.0023747655
-0.025071898 -0.016798049 0.0088915229
0.020854589 -0.013468934 0.0067163957
-0.078441814 -0.016830541 0.0079763141
-0.096355498 -0.024700364 0.0074502844
-0.0033597434 -0.019227017 0.011860222
0.00026392937 -0.015486123 0.0031542196
-0.085905045 -0.020326555 0.0039382242
-0.11663051 -0.014241885 0.0010187509
0.021344196 -0.013556968 0.0078574419
0.0116161 -0.029527145 0.0061322688
0.018981572 -0.020325555 0.00072586199
-0.075533867 -0.029928546 0.0077077593
0.072597787 -0.023452383 0.0083205635
0.05680659 -0.012224969 0.0086246412
-0.10475116 -0.02088891 0.0043284018
0.06445995 -0.018174836 0.014190949
0.048332166 -0.027068822 0.0016605295
0.060955189 -0.017316036 0.00080074987
0.0060333768 -0.026951604 0.011598176
-0.089261979 -0.024311798 0.0083916951
0.014071926 -0.018617533 0.01235407
0.0096819978 -0.029145166 0.0042863907
0.06792783 -0.022640917 0.014479946
-0.0072287978 -0.029128945 0.008259628
-0.075763099 -0.026481729 0.0093235187
-0.08942309 -0.031091049 0.0071475203
-0.077578679 -0.032060523 0.010208748
0.066832714 -0.029072547 0.004124485
-0.034279454 -0.025636116 0.0072398507
-0.061301522 -0.022329209 0.0075449003
-0.044058532 -0.020945109 0.0050521577
0.068582252 -0.021645375 0.00074167032
0.030436158 -0.029618066 0.0092816483
-0.076913692 -0.01703695 0.0012136872
0.042994171 -0.016449789 0.0014383396
-0.015592399 -0.016098035 0.0082942583
-0.11021641 -0.034703303 0.0053388071
-0.018634222 -0.022290658 0.0015771252
0.053911395 -0.014243579 0.011990201
0.021278758 -0.016158836 0.011459821
0.063209742 -0.029076576 0.0033404757
-0.0034430146 -0.018529315 0.0010810603
-0.089790516 -0.0091982903 0.0037534679
-0.077056549 -0.028475828 0.0096594067
0.038557075 -0.022202007 0.00086165126
0.018319631 -0.013628348 0.0064909798
-0.11693706 -0.026087588 0.0030494498
0.041985266 -0.016793737 0.00132583
0.054382391 -0.021139301 -0.00041188931
-0.094348148 -0.030435573 0.008566373
0.052847065 -0.029550493 0.010370003
0.057958335 -0.020187654 0.014226447
0.011211857 -0.029008031 0.0040353746
0.0080119334 -0.029142 0.0091991117
-0.0064606112 -0.016525511 0.0021862215
0.035589419 -0.014111478 0.010439797
-0.035921447 -0.019901622 0.0063912105
0.056055527 -0.012101378 0.0067524742
-0.11073133 -0.019447234 0.0038498559
-0.097058326 -0.018968962 0.0050415793
0.038778465 -0.023223411 0.00082605419
-0.056753986 -0.028140631 0.0068915049
0.029566545 -0.025098177 0.00097715075
-0.077363506 -0.032995086 0.0078765592
-0.020600528 -0.024575744 0.0020848112
-0.055830453 -0.024014803 0.0070514707
-0.093218803 -0.010721916 0.0017573804
-0.0065739416 -0.017823605 0.01129378
-0.10706346 -0.033805005 0.0062330896
0.026971769 -0.014951737 0.0026889299
0.025460387 -0.013892986 0.0095293811
0.031151995 -0.014404348 0.010623759
-0.10063846 -0.031580564 0.0074427691
-0.07366401 -0.025014279 0.009130015
0.046060313 -0.014506122 0.0115653
0.061771184 -0.021846179 0.00049230061
0.0012058369 -0.023522772 0.01256549
-0.0061344467 -0.029116847 0.0043487009
-0.014349959 -0.018106176 0.010603496
-0.096127778 -0.024073977 0.0061632926
0.0018922939 -0.028380843 0.010169669
0.066855364 -0.016865933 0.013680412
0.064688198 -0.016476404 0.00092658272
-0.023179119 -0.024564587 0.011062437
-0.012837224 -0.018755507 0.0010147914
-0.0090612797 -0.021109261 0.00058594136
0.041189965 -0.030085228 0.0055650077
-0.0048310091 -0.018038455 0.011414341
-0.080966771 -0.035657167 0.0090386029
0.05507686 -0.01829662 0.00042057023
-0.079549357 -0.011763822 0.0014181314
-0.0016300244 -0.025399836 0.0010583648
-0.068280615 -0.026785631 0.0070819845
0.01491863 -0.019475227 0.012561535
0.041609909 -0.027706914 0.01234657
-0.085025944 -0.0090496242 0.0049445336
-0.073951229 -0.035190314 0.0095255785
0.015352646 -0.015325309 0.0027470202
0.03910552 -0.020598413 0.013345891
-0.010643697 -0.025344089 0.011913344
-0.0039276271 -0.025100995 0.012050818
0.0009983473 -0.02679849 0.0017363422
-0.11853939 -0.03068825 0.0025215517
-0.031791605 -0.019326745 0.0053319917
0.010274771 -0.028386924 0.003162602
0.0038898489 -0.02945631 0.0064595612
0.072613932 -0.022680398 0.0089825559
-0.00079259626 -0.01593123 0.0099617215
-0.0030047244 -0.028983511 0.0041400227
-0.11323392 -0.032187246 0.0027059785
-0.04784631 -0.018611396 0.0055101635
-0.091851756 -0.0307956 0.0067955251
0.046677116 -0.013027988 0.0041860174
-0.032561824 -0.024754589 0.0072568255
-0.072102629 -0.010579814 0.0043754927
-0.083048366 -0.012589369 0.0010372989
0.025090989 -0.014582968 0.010259727
0.026141964 -0.029181452 0.010110416
0.026620604 -0.021459348 0.013119522
0.00077320042 -0.026998242 0.011391009
-0.11073696 -0.01364852 0.0028236329
0.050379198 -0.018013373 0.013520824
-0.090572394 -0.012706906 0.0011448293
-0.07859312 -0.027614929 0.0077306377
-0.056260318 -0.021665169 0.0054947883
-0.1007417 -0.027425719 0.0059348978
0.0043463376 -0.015727915 0.0027731401
-0.087189838 -0.032220788 0.0097392844
-0.0079238843 -0.02173374 0.00059697067
-0.12032401 -0.019095702 0.0024386533
-0.081638902 -0.03416184 0.010429087
0.030077893 -0.016144864 0.011900079
-0.037319191 -0.021237571 0.0052088667
-0.078544378 -0.017995188 0.0013766886
0.064184099 -0.018640887 0.00055541837
0.054110445 -0.026235325 0.0010937204
0.0061332518 -0.015794046 0.010294024
-0.073626637 -0.010462557 0.0069327243
-0.099427655 -0.027423415 0.0060110898
0.0075924471 -0.022787074 0.012803198
-0.019071782 -0.016920658 0.0042181844
0.02324949 -0.022894859 0.013175143
-0.0056540486 -0.026841279 0.0017199775
-0.093240783 -0.035567284 0.0072716358
-0.067064732 -0.024029061 0.0086197117
-0.10979236 -0.026089584 0.0029728767
0.058600664 -0.013593532 0.0028665378
-0.097338542 -0.025657695 0.0072299805
-0.088478483 -0.029409187 0.0087698111
0.052836269 -0.015175518 0.0017175328
-0.099097595 -0.033226993 0.0078349216
0.060578346 -0.029368432 0.011049032
0.0010436244 -0.02924842 0.0084717553
-0.080990203 -0.020114033 0.0084825419
-0.081569433 -0.018253978 0.0016022887
-0.092736095 -0.025317121 0.0064655496
0.058157366 -0.012089965 0.0060073659
-0.091134101 -0.032318309 0.0069621364
-0.032849357 -0.017465334 0.0062828809
-0.05923789 -0.030038726 0.0069674049
-0.08850389 -0.0314321 0.0072722351
0.026990339 -0.013676219 0.0042872196
0.029193338 -0.013721755 0.0041042673
0.014380295 -0.029428486 0.0089467131
-0.017305806 -0.027867585 0.0042262808
-0.027952503 -0.022043621 0.0085813571
-0.08645092 -0.018298283 0.0024427299
0.045819513 -0.013096413 0.010053834
0.063965023 -0.015967403 0.013565581
-0.0087656705 -0.016266551 0.0099445153
0.071051374 -0.023959043 0.0028719178
0.051727813 -0.023177039 0.00062152673
-0.10376194 -0.019322973 0.0050200182
0.027250005 -0.0142976 0.010163943
0.012418329 -0.014623648 0.0038530724
0.054284889 -0.028635241 0.011933791
-0.094918616 -0.029628539 0.0077033965
0.018924769 -0.0137618 0.0049593821
0.0089265062 -0.022739314 0.012791283
0.055378579 -0.018007202 0.014026796
0.070636705 -0.021065757 0.01324793
-0.030299321 -0.023057779 0.0054216692
0.052987311 -0.018076718 0.00071172143
-0.10641199 -0.027362389 0.0047901841
-0.069429003 -0.027765375 0.0093706232
-0.086085439 -0.008980873 0.0050629876
0.020623052 -0.025137443 0.0010031788
-0.039911147 -0.021206759 0.0063573495
-0.11100677 -0.015006273 0.0044077104
0.047111832 -0.012414479 0.0069865193
0.070281446 -0.020893082 0.0014760647
0.042011112 -0.028472081 0.0028732298
0.06747321 -0.028078808 0.011944323
-0.074126765 -0.017764654 0.0080583487
0.021836285 -0.029591665 0.0086212875
-0.070769273 -0.015649151 0.0030061365
-0.094770454 -0.027473833 0.0072707757
0.065487549 -0.020467227 0.014451254
-0.0047293026 -0.025498493 0.0010692963
0.021744175 -0.027748998 0.0023190891
-0.091778494 -0.012332582 0.0063085542
0.038133953 -0.020293022 0.013288914
-0.085678898 -0.035290018 0.0098540727
-0.10782859 -0.031117765 0.0037856032
-0.11617664 -0.030757597 0.0024375264
0.033243932 -0.022801295 0.00078527571
0.068512268 -0.028928583 0.007530761
-0.01860203 -0.020980218 0.01159166
0.069201834 -0.022537325 0.0011136307
-0.081374437 -0.02942897 0.0094799409
-0.11426432 -0.034491777 0.0039169239
-0.11727761 -0.013875496 0.0016804959
0.070443347 -0.014654569 0.0068074334
0.027821258 -0.029530726 0.0093110409
-0.067060508 -0.021804865 0.008060189
0.047035478 -0.024648348 0.00088171038
-0.12029254 -0.020957299 0.0014036447
0.07021255 -0.018373631 0.013051236
-0.075808264 -0.024131134 0.007486809
-0.028336475 -0.023352001 0.0081867799
-0.0058863671 -0.020371115 0.012066025
-0.0086516943 -0.014832997 0.0056094136
0.04624033 -0.015878251 0.0016372012
-0.11330071 -0.030487115 0.0047856607
0.051441755 -0.014347752 0.01192716
0.058713168 -0.012395468 0.00976492
0.066209599 -0.02992617 0.0073503992
0.068512589 -0.025832575 0.013353642
-0.025149383 -0.022014873 0.0014564486
-0.097111329 -0.0099013448 0.0027885865
-0.079809695 -0.030878196 0.0099577289
-0.083487064 -0.030191559 0.0080066323
-0.12313209 -0.032417528 0.0028679743
0.004975534 -0.029308105 0.0083577326
-0.0065660188 -0.0212688 0.00062925532
-0.022701345 -0.028006461 0.0052865697
0.0029854998 -0.029460531 0.0073700687
-0.064848043 -0.032096699 0.0092330556
-0.064860612 -0.030431096 0.008875668
-0.067139804 -0.033615351 0.0086549846
-0.051674016 -0.024332993 0.0067127924
-0.095284976 -0.02096976 0.0070657497
0.060644012 -0.029499274 0.003801784
0.041154653 -0.029744269 0.0044468334
-0.097878411 -0.015313622 0.003506012
0.059707589 -0.018726666 0.00064503448
-0.10738689 -0.021029321 0.005337473
-0.10632259 -0.014419262 0.0051387204
-0.09826313 -0.0194155 0.0051536891
0.034409862 -0.023605041 0.00085690367
-0.078338727 -0.01208665 0.0071462584
-0.023689112 -0.026420049 0.0098664556
-0.088266343 -0.017876927 0.0076910029
-0.116912 -0.027102228 0.0028533381
-0.050109323 -0.021901742 0.0060154423
0.0057804766 -0.027139816 0.0019500697
-0.054726802 -0.024154559 0.0070733693
0.047883794 -0.029542744 0.010410428
-0.11138973 -0.024823144 0.0027700968
-0.06225273 -0.023186516 0.0077165673
-0.071360841 -0.014197892 0.0027941391
0.043871049 -0.028917061 0.011369189
0.03729824 -0.026325803 0.012951348
0.062688112 -0.027808482 0.012955308
0.0090438873 -0.014129534 0.0063345809
-0.066879697 -0.018254125 0.0075064464
-0.047416363 -0.022531793 0.0049565774
-0.062996484 -0.031751651 0.0086948313
-0.044520028 -0.024778705 0.0052645793
0.029389564 -0.013182838 0.0053829285
-0.078639388 -0.010734113 0.0072015049
-0.090425134 -0.012186415 0.0066368724
0.064288624 -0.020953495 0.00045049028
0.058059301 -0.025700282 0.014032826
-0.10989705 -0.033483159 0.0056943577
0.038605414 -0.025576644 0.013282829
-0.051287573 -0.01982224 0.0049501169
-0.10985173 -0.014109878 0.0011269731
-0.046581537 -0.024157252 0.0051181638
-0.071882568 -0.034729697 0.0079546282
-0.021743814 -0.026885152 0.0095660463
-0.092690796 -0.034026645 0.0092753042
0.0069016302 -0.014194187 0.0062650922
-0.091990463 -0.020163937 0.0074106134
-0.018577142 -0.019369675 0.010981766
0.0087097846 -0.027394136 0.0020866306
-0.068951041 -0.020514041 0.0082400739
0.058186572 -0.027017526 0.013461048
-0.013351009 -0.02505248 0.011883472
-0.058144592 -0.027665094 0.0059252172
-0.080090769 -0.022527711 0.0086140921
-0.098169863 -0.020219324 0.0065519325
-0.10938139 -0.025123555 0.0030090762
-0.028540656 -0.024047252 0.0046498962
-0.028273936 -0.025001759 0.0090570627
0.07300923 -0.022140218 0.008254407
-0.0022816984 -0.017203085 0.011014665
-0.048683066 -0.019066336 0.0051968922
0.048391894 -0.022207949 0.013890816
-0.038420152 -0.019378934 0.0064467522
-0.071130484 -0.030358326 0.0075633265
0.042958517 -0.029955272 0.0051194355
-0.019616848 -0.025470961 0.010833393
-0.017534744 -0.019182542 0.010706704
0.0051061194 -0.028999718 0.0041313097
-0.0045548789 -0.014616679 0.0065189227
0.014212731 -0.01389203 0.0073512532
0.05594125 -0.019966826 0.014666878
-0.1031953 -0.011028766 0.001789316
-0.095364444 -0.012136066 0.0057756845
-0.073226899 -0.019798504 0.0084185321
0.043812774 -0.016462475 0.012720359
0.0075985692 -0.024197895 0.00070676935
0.025148269 -0.017975049 0.012526279
-0.038180534 -0.026781071 0.0060074623
-0.075252958 -0.03552793 0.0087342709
0.053921435 -0.023967506 0.014245754
0.038679145 -0.021721257 0.0134338
0.021885626 -0.015331073 0.010838079
0.026110331 -0.028029159 0.0025367474
0.045893885 -0.012622913 0.0087772235
0.013007427 -0.01451384 0.0090219574
-0.030417811 -0.02317884 0.0068601728
-0.083780065 -0.031069703 0.0099046286
-0.012891082 -0.027229339 0.010967573
0.0058559179 -0.015484567 0.0028414298
0.041069355 -0.027307149 0.0018363846
-0.051122077 -0.021620123 0.0057637775
-0.027804807 -0.017036036 0.0053762291
-0.10859377 -0.033268079 0.0037444041
0.032744616 -0.028719964 0.0030985023
0.066831656 -0.018349536 0.01427046
-0.11118285 -0.014614104 0.0023889982
-0.099051327 -0.014478591 0.0019196167
-0.032464966 -0.018143199 0.0054050693
-0.087799042 -0.034768049 0.0097904578
0.025480526 -0.016952813 0.012128799
0.070774235 -0.015895963 0.010433204
0.041198473 -0.023584234 0.013615893
0.048578102 -0.01441638 0.011711998
0.071820997 -0.020296095 0.0030608308
-0.040739045 -0.02500584 0.0053603235
-0.09376879 -0.027289825 0.0068782205
-0.078353122 -0.027722636 0.0095736533
-0.061234087 -0.026698595 0.0081792586
0.064886682 -0.023347676 0.01472258
0.016402127 -0.029792558 0.0074913572
-0.013520599 -0.016929351 0.010269575
-0.099469699 -0.020494122 0.0051054237
0.038640518 -0.012759469 0.0058838916
-0.011020282 -0.02895936 0.004219973
0.0043261778 -0.019305345 0.012939366
-0.006821665 -0.028544065 0.0098452913
-0.045081392 -0.024334311 0.0069764177
0.062018014 -0.020288199 0.01440814
-0.080571793 -0.020948954 0.0042613726
-0.024588546 -0.028198645 0.0076772678
0.067857906 -0.020173104 0.00057430658
-0.083198994 -0.024095202 0.0069328323
0.049724795 -0.021024596 0.00067983387
0.037007257 -0.019305494 0.00090348022
0.018259417 -0.025689278 0.0011441885
0.057414833 -0.026004972 0.0009726733
0.050466787 -0.015007068 0.012301746
0.013240608 -0.01887903 0.00083905185
-0.074419521 -0.025187962 0.0074504651
0.030848976 -0.020481553 0.013155833
-0.031113565 -0.026127614 0.0074325041
-0.077584706 -0.009319121 0.0057903798
-0.072404854 -0.020356024 0.0084475717
-0.060005583 -0.028716799 0.0085329972
-0.062647134 -0.021168645 0.0061740465
0.014542464 -0.0288858 0.010211324
0.015289955 -0.02687175 0.012015739
-0.073273316 -0.033288583 0.0077530886
-0.09286651 -0.012791052 0.0010958731
0.0033382627 -0.027376343 0.0021629117
0.04622056 -0.021048518 0.00076382729
0.048883557 -0.02410369 0.013950921
0.049942151 -0.022137851 0.0006464856
0.06233608 -0.030184675 0.0062086256
0.041420262 -0.029420655 0.010603424
-0.040737193 -0.022157814 0.0065667345
0.051902544 -0.015382824 0.012685487
-0.079826161 -0.01978799 0.0025770508
-0.039072555 -0.023998547 0.0068526012
-0.092771754 -0.01442272 0.0013923543
-0.10789108 -0.032322299 0.0037860409
0.0057058758 -0.017634129 0.011737108
-0.049302813 -0.019131545 0.0059793293
0.039453387 -0.029460799 0.0039605713
0.045976263 -0.022270225 0.013828247
0.037783355 -0.027329637 0.012487202
0.066567734 -0.015678486 0.013099656
-0.089065984 -0.025819784 0.0071241688
0.0038729885 -0.017854182 0.0012377048
0.046108261 -0.029414326 0.0038911703
0.038523268 -0.014682097 0.011243977
0.012633618 -0.016912395 0.001594861
0.019582694 -0.026038406 0.0012860703
-0.070545256 -0.013917498 0.0032790394
-0.061182767 -0.024822393 0.0078951661
0.034203786 -0.018800167 0.012953253
-0.11804839 -0.012827121 0.00034020905
-0.069199115 -0.018353241 0.0078237839
-0.066119403 -0.012619967 0.0067781168
-0.00052071462 -0.015160153 0.009009907
0.053963818 -0.017443329 0.00086593296
0.069338441 -0.018993765 0.013664445
0.067386456 -0.014644621 0.0026149657
-0.079384163 -0.019122858 0.0019150662
0.054470319 -0.029940272 0.0049109263
-0.021689566 -0.024898252 0.010764533
0.03851141 -0.014882305 0.0024504999
-0.024944587 -0.027032586 0.0034780013
-0.068090536 -0.032213405 0.0073330705
0.0035267686 -0.018537845 0.012042485
0.0021741882 -0.016042015 0.0023865341
0.023294248 -0.029788584 0.0059439596
-0.1223718 -0.014259154 -0.0004897943
-0.094190776 -0.024947267 0.0078665717
-0.087204598 -0.03102462 0.0096156057
-0.085554227 -0.026735172 0.0089624776
0.06597174 -0.027940175 0.012701869
-0.065997072 -0.020683981 0.0066595026
-0.06856522 -0.011510799 0.0050432398
-0.011231819 -0.025022088 0.00084875122
-0.023756905 -0.027567193 0.0043250988
-0.073873967 -0.029009236 0.0097168069
-0.014078462 -0.024669662 0.0010626038
0.070054024 -0.015731249 0.011456324
0.0063663712 -0.015182913 0.0095235063
0.033195648 -0.018185442 0.01281561
-0.016977804 -0.021886408 0.011594038
0.036363464 -0.017968271 0.01284482
0.069195427 -0.025799649 0.0019691198
-0.035263456 -0.027137525 0.0062606074
0.02063686 -0.020063959 0.00074607023
-0.037592586 -0.020106833 0.0053031705
-0.079467371 -0.014369148 0.0078648236
0.007041987 -0.02379851 0.012795582
-0.11257759 -0.031756777 0.0050078072
0.015109662 -0.017646909 0.0011944049
-0.078030199 -0.02158168 0.0086549483
0.03317745 -0.020075507 0.00087031029
-0.071518846 -0.029435262 0.0074875448
-0.059495054 -0.020741429 0.005901251
-0.10606892 -0.019485289 0.0038129259
-0.088243604 -0.032021783 0.0096733049
0.0063871751 -0.016233455 0.0021445639
0.038053755 -0.024407126 0.00094216532
-0.1061897 -0.034254469 0.0063656927
-0.072943181 -0.016800797 0.0021706608
-0.082142197 -0.025715431 0.0074816477
-0.090157218 -0.016412403 0.0021625888
-0.0274029 -0.017178159 0.0041573653
-0.021503164 -0.027481273 0.0041932822
-0.11385639 -0.031783126 0.0047584688
-0.10579645 -0.01098505 0.0020877551
0.026576886 -0.029887082 0.0062263771
-0.11414698 -0.012116469 0.0036046079
0.041114047 -0.017369404 0.0011428456
-0.092113405 -0.026133131 0.0066720438
0.01380961 -0.029597228 0.0079653487
-0.0062033096 -0.020297378 0.00070476567
0.059783623 -0.026958214 0.0013110826
-0.013542151 -0.019786013 0.00086034212
0.031065352 -0.026206024 0.0013955866
-0.0074654003 -0.016298635 0.0024418884
0.0016911309 -0.025147278 0.00095782487
-0.11508849 -0.034203943 0.0027665482
0.03458159 -0.021240084 0.013309004
-0.015697423 -0.019219086 0.010943077
-0.0023016564 -0.015792483 0.0027839479
0.069341645 -0.017982529 0.013347128
-0.01358554 -0.015958365 0.0092045069
-0.073177591 -0.017208418 0.0078616245
0.062106013 -0.018186554 0.00061810814
-0.11575502 -0.031815048 0.0023813604
0.017463792 -0.029739477 0.006489099
-0.014613842 -0.019520201 0.010974891
0.0061690365 -0.014653806 0.008582212
-0.053650036 -0.018608861 0.0058386177
-0.096306466 -0.033429015 0.008510693
0.0072540604 -0.025221139 0.012452122
0.028336693 -0.013459255 0.0046126344
-0.0024725765 -0.015177224 0.003626517
-0.095061228 -0.010317183 0.0057632448
-0.091956772 -0.023740675 0.0068191127
0.064875454 -0.013003463 0.010882903
0.015793307 -0.024057362 0.012896961
0.052295759 -0.019298621 0.01408584
-0.0091290371 -0.015871858 0.0029694685
-0.016901337 -0.017071746 0.0037390736
0.062915213 -0.012001517 0.005539774
0.036104858 -0.026350815 0.012936572
-0.079774298 -0.0205801 0.0036386414
0.040223155 -0.019656109 0.00085631211
-0.07439582 -0.032432705 0.0078622224
0.056461938 -0.017174058 0.00092875201
-0.068222113 -0.02101342 0.0065052137
-0.015180083 -0.015773058 0.0074360138
-0.0026816018 -0.016503664 0.010433058
-0.11462151 -0.013841328 0.0010891764
0.062813573 -0.025501173 0.00079801254
0.060134545 -0.030106608 0.0054756044
-0.10920599 -0.018674942 0.0033248991
0.036680553 -0.022677861 0.00082579569
0.032011721 -0.01525999 0.0023281004
-0.08605361 -0.011225635 0.0015920323
-0.1068906 -0.032153517 0.0039763656
0.050311036 -0.014007985 0.0029219398
-0.017630555 -0.015935257 0.0066823103
-0.11468414 -0.032710254 0.0044615525
-0.069885373 -0.011406573 0.004575395
0.060765542 -0.01436891 0.0020376621
-0.0117444 -0.020478891 0.011960782
-0.068147823 -0.01985902 0.0079228403
-0.0091257859 -0.028461268 0.0032837058
0.071883202 -0.025073972 0.0093742143
-0.11615132 -0.031188596 0.0043218783
-0.084215209 -0.026576746 0.0089880824
0.02217273 -0.022721812 0.00073175377
0.022781925 -0.027072035 0.012094947
-0.0077014458 -0.028794255 0.0093288319
-0.024964623 -0.018329177 0.002687651
-0.10370629 -0.025537431 0.0058471654
-0.1153619 -0.033071045 0.0023247562
-0.025600098 -0.019394666 0.0021004719
0.042109109 -0.0209052 0.01349681
0.027392333 -0.029333957 0.0040522981
0.039260112 -0.024187332 0.0009174858
-0.0062746913 -0.022249844 0.00062113808
-0.01925982 -0.028275933 0.0059328759
0.025998661 -0.014823901 0.010657273
0.060163435 -0.016998136 0.013729114
0.022870377 -0.017109815 0.012108302
-0.077031672 -0.026371617 0.0076064458
0.014773834 -0.015905969 0.0021698773
-0.071566164 -0.016338764 0.0078436555
-0.010542348 -0.019775167 0.00073751074
-0.072155513 -0.012121688 0.0068455739
0.01570645 -0.014447506 0.0038258811
0.0045170952 -0.020307764 8.4337837e-05
-0.010616414 -0.026413318 0.011531342
0.039617825 -0.012659184 0.0062210835
0.052620485 -0.025260014 0.013931581
0.072367199 -0.019578999 0.0042333063
-0.0048990017 -0.024823911 0.01216645
-0.083591476 -0.010420518 0.0021945909
-0.013040863 -0.029270196 0.005260902
-0.0027661684 -0.020259218 0.012134201
-0.10238208 -0.010647029 0.002264549
0.03476923 -0.012880199 0.0074616778
-0.0090767341 -0.027549583 0.010722252
-0.076717272 -0.024628554 0.0075649577
-0.10263702 -0.03138496 0.0069310744
-0.089949049 -0.018653473 0.0035848035
-0.026789557 -0.018088419 0.0089639686
-0.11872308 -0.034017734 0.0031933784
-0.013806561 -0.027652325 0.01023736
-0.035467695 -0.025066424 0.0070570437
-0.075291544 -0.017309312 0.0078507848
-0.048146233 -0.023245253 0.0049378127
0.061388243 -0.011991641 0.0065147597
-0.1056148 -0.032208804 0.0041851699
0.064478666 -0.013543259 0.0028343005
-0.079384029 -0.029465778 0.0078553855
0.01918366 -0.027642133 0.0022425344
0.017925087 -0.028332697 0.01088022
-0.071045943 -0.033740725 0.010053689
-0.0623895 -0.02266801 0.0063209776
-0.12120751 -0.025158551 0.00202239
0.019022852 -0.025048081 0.00097247428
0.049336806 -0.029959349 0.0088094044
-0.076937556 -0.011358215 0.007084127
-0.09811803 -0.011036052 0.005229678
0.018532539 -0.016163144 0.0019114353
0.040243022 -0.022822425 0.000824527
-0.063708566 -0.018801777 0.0062303175
0.07098417 -0.017113881 0.011481175
0.055208325 -0.023608886 0.00035762429
0.032413144 -0.013145913 0.0084670708
0.028896175 -0.029676216 0.0091361823
0.033163361 -0.029958062 0.0061956923
-0.0016856409 -0.020682145 0.012254983
0.02152209 -0.013782462 0.0089036021
0.021631405 -0.026964581 0.012114682
-0.073391564 -0.013444243 0.0020488268
-0.045917362 -0.02526244 0.006968352
0.059216566 -0.01480524 0.001870831
0.016721454 -0.027187781 0.011794615
-0.042042091 -0.02113051 0.0062961802
0.013976665 -0.021228561 0.00068413489
-0.086144015 -0.017141785 0.0017784652
0.023335295 -0.019442422 0.012801975
0.0080641974 -0.027034309 0.011629257
-0.07838276 -0.024587033 0.0092157442
0.022291055 -0.016391518 0.011678701
0.042905118 -0.025126051 0.013551036
0.039531667 -0.022231147 0.01357382
-0.027769918 -0.023074133 0.0089606941
-0.10853481 -0.012663571 0.003248706
0.070643209 -0.025140315 0.0032174159
0.01939496 -0.029410578 0.0046330891
-0.097041719 -0.014430563 0.0016948135
-0.084402934 -0.012156794 0.0011896784
-0.019200899 -0.028005634 0.007419684
-0.09422338 -0.012880752 0.0060715927
0.058931515 -0.012783764 0.0037309034
-0.09629751 -0.025506321 0.0056966059
0.033185195 -0.017017908 0.0013458829
0.033238117 -0.028698407 0.011134472
0.028957207 -0.023048345 0.00079449115
-0.053874634 -0.021786779 0.0052274629
0.015845004 -0.018226746 0.012231062
0.019260703 -0.016808864 0.0015382167
-0.074715108 -0.029364232 0.0076870904
-0.10067194 -0.01273299 0.0048675057
-0.018570101 -0.021100178 0.0017004303
-0.051190272 -0.022335202 0.004956963
-0.0013576807 -0.016718339 0.010619342
-0.043229245 -0.025341243 0.0070424639
-0.0095893294 -0.022008132 0.012189908
-0.11612074 -0.012472073 0.0026310803
-0.0011030912 -0.01814715 0.0011508769
-0.055079836 -0.022728642 0.0052926345
0.066570707 -0.025001679 0.014244584
0.05075039 -0.019973209 0.00067200291
0.00072551239 -0.015887912 0.010000716
0.042504083 -0.015365558 0.01203577
-0.0079477243 -0.029325329 0.0060716192
0.021817315 -0.013447626 0.0062501263
0.033366133 -0.024302812 0.00093353388
-0.091634706 -0.011363821 0.006138653
-0.067344695 -0.031092927 0.0071690492
-0.022392441 -0.020741384 0.0019175628
0.045089245 -0.023425376 0.00083201478
-0.026293911 -0.020490658 0.0018163724
-0.086311936 -0.013186548 0.0010470652
0.064305745 -0.030149553 0.006201813
0.0037361968 -0.024129873 0.00043455011
0.016307812 -0.026552115 0.0015316217
0.047159329 -0.021938996 0.00075064017
0.052671518 -0.014484157 0.012125186
-0.1057958 -0.024996389 0.0036991653
-0.0081407605 -0.024377795 0.012207256
0.042187102 -0.029668724 0.0043562595
0.067022271 -0.012502402 0.0062945471
-0.018615566 -0.02539316 0.01067465
0.052312255 -0.014362306 0.0023278734
-0.075491808 -0.027679782 0.0096230796
0.034844916 -0.029529722 0.004225824
0.066352539 -0.013400548 0.0033991036
0.065026022 -0.019591345 0.014348717
0.052907296 -0.013020523 0.010395007
0.046424076 -0.01490706 0.0022070466
0.042604417 -0.01833377 0.00097025151
-0.024345202 -0.025696926 0.010421319
-0.077181272 -0.034813751 0.010324341
0.033470556 -0.019555546 0.0130818
0.057372186 -0.018075665 0.013910756
-0.083568864 -0.018677615 0.0021597194
-0.010174707 -0.027942704 0.002659746
-0.10112649 -0.014556924 0.0032346356
-0.020715395 -0.028171068 0.0060089631
-0.080324285 -0.015648203 0.0075069461
0.030781718 -0.016388975 0.0015878477
0.066704251 -0.013925513 0.011678483
-0.020662591 -0.016810656 0.0089035723
0.035272267 -0.021663299 0.00086928252
0.071001291 -0.023634151 0.012484584
0.027948134 -0.020901963 0.013100076
0.062990084 -0.016254719 0.013653057
-0.082627796 -0.034093011 0.010316186
0.071915299 -0.017622789 0.010349923
-0.089245453 -0.014746735 0.001277648
0.049450908 -0.013928053 0.011343347
-0.11950485 -0.020561419 0.00094292546
-0.02924514 -0.018622462 0.0064358339
0.055833414 -0.014191561 0.012003473
0.050720684 -0.027725644 0.012582538
-0.068017714 -0.012298091 0.0068100803
0.028829264 -0.013140048 0.0063671595
-0.060071334 -0.021329243 0.0072198617
-0.084728375 -0.023071446 0.0070510046
-0.099855244 -0.01328411 0.0051429821
0.0042049359 -0.023882661 0.012975883
-0.039252024 -0.023927374 0.0052333414
0.063292652 -0.02535259 0.014366154
0.015135243 -0.026252113 0.0013949531
0.043462824 -0.01755235 0.013019824
0.0071260417 -0.029507579 0.0064400481
-0.034485139 -0.025022883 0.0054367995
-0.020432517 -0.019813579 0.0021731239
-0.087671019 -0.01084671 0.0017555514
0.0082714744 -0.021090947 0.012619025
0.050460178 -0.012853135 0.0099436063
0.0071078399 -0.01596625 0.010529974
-0.03721898 -0.024021506 0.0052994946
-0.059310086 -0.018666456 0.00686331
0.014176944 -0.018230226 0.0010068915
-0.097082056 -0.018118117 0.0058516874
0.023797262 -0.022889841 0.00075364485
-0.096654564 -0.015422231 0.0037930226
-0.11496133 -0.030252965 0.0030737056
0.033760503 -0.0280584 0.011822835
-0.11893645 -0.012817523 0.0008836285
0.057912327 -0.027786147 0.0020143478
-0.024851285 -0.02710491 0.0092759198
0.053138707 -0.01547835 0.012775557
0.015668718 -0.019839738 0.00073647592
-0.12264796 -0.031008188 0.0014838249
-0.0052403286 -0.022895396 0.00065381202
-0.11120255 -0.031814288 0.0030597399
0.05651078 -0.021600647 1.2065299e-05
0.068623252 -0.017207436 0.013289481
-0.06692832 -0.032557704 0.0072733779
-0.056242399 -0.022734517 0.0069143716
0.00071868079 -0.014450267 0.0057433997
0.0041073263 -0.015080731 0.0035423893
0.059277702 -0.012095265 0.0088236779
0.064535342 -0.013569119 0.011666045
-0.008233089 -0.018536288 0.011516022
0.02042182 -0.016659195 0.011783007
-0.068969667 -0.027778026 0.0072690425
0.034770176 -0.019689798 0.013133736
-0.047240544 -0.02616665 0.0055720899
0.0083647976 -0.017803174 0.011854113
-0.070706621 -0.028299391 0.0074042375
-0.0035654022 -0.024828516 0.00085191056
-0.11690214 -0.025012475 0.0015145468
-0.0082999486 -0.015699733 0.0092549203
-0.078031912 -0.013988441 0.007307543
0.056621477 -0.022701215 0.00030379402
-0.0080004688 -0.027041487 0.011094661
-0.09130054 -0.033082351 0.0091437958
-0.073580772 -0.0096105728 0.0054081297
-0.0036070794 -0.014602458 0.0062366445
0.016888896 -0.017624997 0.012120255
-0.073002115 -0.033052016 0.010185216
-0.016206823 -0.018105481 0.010315218
-0.10570971 -0.012987123 0.0013146226
0.032316357 -0.027418355 0.012280785
-0.075836457 -0.020167395 0.0035687066
0.045004718 -0.028819907 0.011539984
-0.11748917 -0.033197083 0.0019981875
0.0059764767 -0.02023221 0.00026722235
0.022302287 -0.018791404 0.00088653737
-0.0808862 -0.014257479 0.00085181341
0.0075152419 -0.019531291 0.012421406
0.019001318 -0.025245428 0.012823906
0.041753888 -0.012626948 0.0071909092
-0.079662971 -0.02851114 0.0097087612
0.050586767 -0.025337461 0.00092651509
-0.022950772 -0.016009757 0.0064906185
-0.088368811 -0.033697952 0.0074881515
-0.0015890058 -0.029058266 0.0091660013
0.030743049 -0.02987558 0.0080714067
-0.097903378 -0.020342592 0.0054961555
0.013475783 -0.028618623 0.010368509
0.036369808 -0.028848577 0.011182337
-0.0027299903 -0.029391874 0.0057208082
0.016344858 -0.028961953 0.0037512479
-0.10732678 -0.027307592 0.0042930664
0.026784461 -0.027662365 0.011839563
0.0027863819 -0.02439468 0.00078023807
-0.076556139 -0.029979253 0.010047017
0.048197098 -0.017019823 0.013170399
-0.11614147 -0.020726673 0.0017868694
-0.068734765 -0.017454792 0.0075741876
0.055113394 -0.015680324 0.013013253
-0.077169821 -0.021000938 0.0084285848
-0.088395216 -0.014651315 0.0069414619
-0.088736065 -0.0089032687 0.0044188704
0.029577797 -0.029859375 0.0052602515
0.057829536 -0.021903347 0.0005610587
-0.041759551 -0.024436628 0.0053422274
-0.072723895 -0.011838882 0.0030825776
-0.0036383886 -0.015092565 0.0038339091
-0.11946946 -0.014675914 0.00035900826
-0.033398017 -0.024868034 0.0054322947
-0.085992575 -0.019196227 0.0029232644
0.0058365068 -0.017449528 0.0013687377
0.063175872 -0.0175626 0.00072233018
0.068024896 -0.016318701 0.013172008
-0.099767163 -0.030895907 0.0075091887
0.030249057 -0.029961016 0.0067132814
-0.0701603 -0.034202598 0.009730842
-0.098893031 -0.030337784 0.005672669
-0.11910381 -0.033927441 0.0021420401
-0.060758196 -0.020538082 0.0060763513
0.040821489 -0.015113026 0.011768852
0.014465755 -0.014781783 0.0097647104
-0.066237107 -0.03127956 0.0092913304
-0.02774616 -0.021857195 0.0035644129
-0.012747791 -0.015542918 0.0034002899
-0.029330565 -0.019802874 0.0053083142
0.028031163 -0.029982109 0.0075846617
0.022906292 -0.029567663 0.0047608968
0.063215658 -0.030285316 0.008207514
-0.067824632 -0.017924465 0.0075766467
-0.097483061 -0.025444008 0.0055027949
0.0548646 -0.024492448 0.00072824548
0.034067936 -0.013010761 0.0081926696
-0.070545226 -0.018427428 0.0082174735
0.039557025 -0.020983988 0.00082797243
0.058108479 -0.024624787 0.01429718
-0.097310856 -0.010554449 0.0020169418
-0.067790598 -0.016919035 0.0074050166
0.010647178 -0.016487971 0.011187706
0.068812974 -0.028376777 0.0044387202
0.072524026 -0.018349703 0.0066267722
-0.061286703 -0.022208355 0.0062701209
-0.089007348 -0.015985982 0.0016986183
0.013688901 -0.024064282 0.00077113276
-0.093501501 -0.020400435 0.0072294855
-0.071384437 -0.029384285 0.0096266158
-0.091718316 -0.027363403 0.0081137531
-0.07922402 -0.012725178 0.0011432641
-0.0013595716 -0.028735487 0.0037414874
-0.087656789 -0.030820038 0.0074225445
-0.069400862 -0.030002452 0.0096007725
-0.10107788 -0.033490077 0.0052908757
0.065520629 -0.029561322 0.0045388862
-0.10505639 -0.026973445 0.0054046204
-0.00093503192 -0.020012252 0.012207227
-0.088678986 -0.026729017 0.0074204365
-0.080595657 -0.0092831375 0.004266439
0.0031306623 -0.029333174 0.0050160638
0.014536027 -0.013819459 0.0060048476
0.030690925 -0.028226838 0.0026759151
0.051823661 -0.030139908 0.0080305068
0.052859541 -0.025922379 0.00097067317
-0.088608675 -0.018999049 0.0076978002
-0.10360865 -0.014681583 0.0043822844
0.05160483 -0.02498292 0.00082190975
0.023681795 -0.014541297 0.0033151458
0.044443496 -0.014820281 0.0022984587
0.062392723 -0.022740548 0.014534271
-0.039313443 -0.017862404 0.0057241069
-0.10793734 -0.020372722 0.0034812475
-0.090670146 -0.011416727 0.0014202701
0.022403788 -0.014296858 0.0037283278
-0.00086824375 -0.017295282 0.0016545084
-0.085637242 -0.014086511 0.0072928076
-0.11398016 -0.033636998 0.0046156114
-0.093075372 -0.031857148 0.0090653021
-0.014565708 -0.025369406 0.0016996401
-0.01086163 -0.022669112 0.012202768
-0.043877039 -0.024520168 0.0071198
0.021724287 -0.013564943 0.0051459055
-0.010256708 -0.017776357 0.01109199
0.029520592 -0.016990673 0.001358597
0.041986316 -0.012910408 0.0048792171
0.0032275878 -0.021952275 6.6353161e-05
0.018090565 -0.018595697 0.00088001543
-0.093958348 -0.01012122 0.0056355111
-0.054354809 -0.022905177 0.0064680399
0.040669158 -0.021755543 0.00084280467
0.037437219 -0.012951392 0.0086098984
-0.0096933749 -0.01489346 0.0069423746
0.0026545604 -0.022747628 0.012858424
-0.084289804 -0.02424683 0.0070843259
