ply
format ascii 1.0
comment PCL generated
element vertex 1229
property float x
property float y
property float z
element camera 0
property float view_px
property float view_py
property float view_pz
property float x_axisx
property float x_axisy
property float x_axisz
property float y_axisx
property float y_axisy
property float y_axisz
property float z_axisx
property float z_axisy
property float z_axisz
property float focal
property float scalex
property float scaley
property float centerx
property float centery
property int viewportx
property int viewporty
property float k1
property float k2
end_header
0.01134608 -0.0030331805 0.02186284
-0.023641724 -0.025483679 0.02602856
0.012532949 -0.038262654 0.005526003
-0.0069944207 -0.028591445 0.00042413088
-0.053269897 -0.054059383 0.021418989
-0.056277558 -0.052239172 0.028680123
-0.059669565 0.0030104746 0.0090169078
-0.052668922 -0.052538455 0.027346889
0.0030904755 -0.038473673 0.02710175
-0.048911799 0.013053811 0.026656212
-0.02988705 -0.026226595 0.0010744038
-0.03669931 -0.036687888 0.02617126
-0.058182068 -0.029691141 -9.2333888e-05
-0.041838016 0.012481567 -0.0029245922
-0.016171552 -0.032719973 0.00068925734
0.0027708183 -0.004135875 0.0270989
-0.0093138907 0.0041114832 -0.00099230511
-0.058685943 -0.01339454 0.027007068
0.0017989012 -0.019005535 0.026541365
-0.034372449 -0.063270994 0.0068159513
-0.014499546 0.016403252 0.027279314
-0.026336476 -0.011679004 0.00095539197
0.014644658 -0.028470695 0.028643169
-0.045096207 0.015270928 0.011369148
0.0032155605 -0.052183364 0.0047286083
-0.061101437 -0.026587741 0.026797425
-0.057501428 -0.027546251 -0.00044639918
-0.0023617246 -0.0027847728 -0.0010758301
-0.0020312907 -0.05657715 0.015972016
-0.012419569 0.0066837883 0.026461326
-0.0041222135 0.013610335 0.0032978139
-0.024202308 -0.014215363 0.00092572573
-0.06761834 -0.027686341 0.023566272
0.0019254189 0.0063865664 0.027344156
-0.067978151 -0.023643721 0.025334155
-0.036928359 -0.012792506 0.026123215
-0.0082254242 -0.057210643 0.027404483
-0.045898438 -0.0035938218 0.026299313
0.0035899461 -0.044296272 -0.0029889552
-0.035531901 -0.063781209 0.028428225
-0.067020968 -0.012951117 0.025323864
0.014079321 -0.025380339 0.027322531
-0.0079082698 0.0066979527 0.02720587
-0.022716336 0.0072110449 -0.0010456323
-0.057355277 0.0058771409 0.012889067
-0.010936437 0.014226199 0.027472133
0.015915373 -0.023020715 0.01012229
-0.057437342 0.0056819869 0.02307923
-0.025780791 -0.029193414 0.026041092
0.011755292 -0.039772857 0.0022282063
-0.054155663 -0.020139039 0.02646926
-0.06596671 -0.0090842675 0.016201342
-0.02838354 -0.039125595 0.00031589324
-0.011062264 -0.041894957 -0.00038453744
-0.065590292 -0.036434758 0.0036893603
-0.0042321985 -0.053012811 -0.0030262396
-0.027256612 -0.052968699 0.026622333
-0.048921224 0.013041716 0.025118349
-0.0046259523 -0.0094762687 0.026353383
0.0030892796 -0.052361146 0.0070251613
-0.052004825 -0.035693545 -0.00094301626
-0.0072360337 -0.0029713176 0.026336372
0.0020698928 -0.053213861 0.0062565715
0.0090180505 0.00061937614 0.0055051423
0.015052682 -0.030627595 0.0033790008
0.001333445 -0.0041386103 0.026758939
-0.012606727 0.00086571841 0.026313543
-0.014252467 0.00020603361 0.026342837
-0.020313179 0.019156476 0.029780701
-0.025232499 -0.030787613 0.026062476
-0.044485036 -0.059865635 0.0012974637
-0.067734651 -0.026582282 0.018170714
-0.049366429 0.0056331633 0.026666246
-0.068021044 -0.019241191 0.013538529
-0.040402703 -0.061547428 0.02132421
-0.0074167075 -0.059717368 0.025396973
0.0029720583 0.0081216358 0.021565769
-0.0060159415 0.014769564 0.020819629
-0.014615656 -0.02883376 0.00084747263
0.0081671923 -0.046373662 0.0091932798
-0.028971341 -0.038005844 0.026150551
-0.020965748 -0.046860822 -0.00038672687
0.01507491 -0.012805698 0.013211925
-0.0187156 0.019116882 0.0032055348
-0.06811358 -0.020784408 0.0019714343
-0.034386829 0.012356308 0.02678347
-0.034453914 -0.041516308 0.0003902232
-0.059166506 -0.019763213 2.4205387e-05
0.013803429 -0.0085508963 0.013997328
-0.039603762 0.017057665 -0.00061857409
-0.020359587 0.014172459 0.026771747
-0.047385253 0.0022957008 -0.00037173252
-0.036109008 -0.062876455 0.0061312243
-0.045460552 -0.053207047 0.026578603
-0.030944163 -0.018409418 0.026009766
-0.067063726 -0.03074323 0.0052724564
0.011111063 -0.0079453364 0.027347501
-0.058997881 -0.048133608 0.019260824
-0.064237393 -0.0050490927 0.027209319
-0.023758745 0.019817285 0.014119972
0.01469788 -0.011226019 0.015571658
-0.060364842 -0.040657431 0.027453005
-0.035969947 -0.033102259 0.00085273321
-0.056729756 0.0065456661 0.010046248
-0.054860525 -0.053299431 0.028148377
-0.043467917 -0.027124204 0.00049864303
-0.024230404 -0.047390264 0.026314206
-0.011912215 0.01727101 0.015299054
-0.048535183 -0.055603869 0.027161889
-0.017926071 -0.001761253 0.026268605
-0.012669992 0.017586879 0.022158343
-0.013150138 -0.023662426 0.00087406213
-0.04925653 -0.010035397 -0.00022170288
-0.0441553 -0.020883683 0.00044878331
-0.053693 -0.050041113 -0.0029851461
0.015203659 -0.030112665 0.024893142
-0.023173369 -0.04379259 0.026274566
0.011738921 -0.023814712 0.027546946
-0.026580319 -0.022519631 0.026032459
-0.017753031 -0.010418023 0.00075213856
-0.00033143 -0.0055246786 0.026679683
-0.063257173 -0.041815132 0.013566215
-0.044498928 0.015618955 0.017015524
0.005326245 -0.039553147 0.02671651
-0.032277308 -0.034192372 0.026101142
0.015841067 -0.017678579 0.013439968
0.014877182 -0.03165333 0.018027861
-0.049197059 -0.051452465 -0.0028669252
-0.013982941 0.017927578 0.015046309
-0.01193127 0.013938604 -0.0030831629
-0.066606432 -0.028911088 -0.0019536109
-0.056926325 -0.013491327 0.026511008
-0.0030398963 -0.026932696 -0.00029558782
0.0027813141 -0.041801516 -0.0015645092
-0.0086026378 -0.057224914 -0.0030426593
-0.006829062 -0.031155165 0.00012735369
-0.012436593 0.018240539 0.02880102
0.0083998628 0.0015947474 0.0097018816
-0.0073029366 -0.0081183407 0.02632842
0.0067799259 0.0039248858 0.022824045
-0.045068651 -0.059497375 0.026850134
-0.058690187 -0.0080473823 -0.0020985019
-0.029727904 -0.0099308863 0.00091437687
0.0075422507 0.0027311922 0.008473482
-0.016622769 0.019549819 0.029616971
0.0064252233 -0.023627263 -0.00032960181
0.0040934174 -0.045331229 0.02755685
-0.0014682044 -0.025110157 -0.00033732646
-0.028891023 -0.035007454 0.026101895
-0.010406974 -0.0041782437 -0.00032786903
0.015128128 -0.027239766 0.029326083
0.0086220643 -0.0024020849 -0.0029587909
-0.022725306 -0.063820943 0.00061913003
-0.0060543707 -0.029679447 9.4552175e-05
0.010918299 -0.040445372 0.028529027
-0.038028192 0.014816592 0.027544072
-0.028458478 -0.056728475 0.027032942
-0.025063483 -0.010825525 0.00087029929
-0.0053960076 0.014277424 0.0073802983
-0.062606975 -0.001573758 0.011063499
0.0072664083 -0.047607005 0.013953735
-0.018623473 -0.014615871 0.00090370036
-0.047588013 -0.058179233 0.019064443
-0.04563681 -0.044910651 -0.0009621483
-0.065003842 -0.006577685 0.018838799
-0.033790331 -0.029682802 0.0010770207
-0.0041347747 -0.055781525 0.027265318
0.011516294 -0.0035491667 0.013582869
-0.046590712 -0.058834042 0.0065197386
-0.030960834 -0.063801825 0.014862313
-0.056818668 -0.036287047 0.00030707251
-0.021171758 -0.064507648 0.028433658
-0.0021764655 0.012299685 0.0017733456
-0.050797455 -0.047040958 -0.0014722407
0.0087532634 -0.026071956 0.026991131
-0.00015841745 0.0016090296 -0.0017627401
0.0024159837 0.0086342953 0.026471524
0.015167619 -0.012481339 0.027891103
-0.0072450889 0.015212956 0.0075207818
0.0014351881 -0.028582638 -0.0008288463
-0.038002796 -0.062368553 0.02162578
0.0096999491 -0.043076515 0.02895803
-0.02989726 -0.056417923 0.027119258
-0.030932657 -0.016835397 0.0010349324
-0.02917156 0.0197191 0.019846305
-0.055604976 -0.040244006 0.026997
-0.044476055 -0.059378728 -0.0004548436
0.0056883614 -0.01790229 -0.00048180844
-0.056290343 -0.040586684 -0.0018063253
-0.012315927 0.0098858569 0.027039459
-0.041395854 -0.041669127 -0.00024878173
-0.031363495 0.010951531 0.027072562
-0.02653924 -0.048058588 -0.00033781808
-0.044052191 0.015816607 0.01555909
-0.067298308 -0.015172947 0.027067911
0.012925725 -0.0067417733 0.0036517545
-0.046919204 -0.052353084 -0.0028386961
0.015772125 -0.026084919 0.022601441
-0.0011868218 -0.051576152 0.02753108
-0.045464605 -0.04994408 2.8500313e-05
-0.015212212 0.0093868785 -0.00012198729
-0.053583443 0.0030896331 -0.0029507212
0.015385902 -0.029397212 0.022782899
-0.032817952 -0.021254003 0.0010782999
-0.047116991 -0.028059971 0.00020939492
-0.031098284 -0.063100748 -0.0011006381
-0.060491607 -0.016471099 -0.00080456166
-0.044518653 -0.059776735 0.018106202
-0.040929697 -0.061286382 0.026881833
-0.056844994 -0.0093995137 3.7621077e-05
0.015912985 -0.023859151 0.027100261
0.0038930299 -0.051532671 0.0082610762
-0.055351336 -0.007831296 0.026573593
-0.027401475 0.018116191 0.027164914
-0.06116334 -0.034804434 0.027026497
-0.067157432 -0.03026339 0.00086427637
-0.051957298 0.010170644 0.028722294
-0.055903621 0.0074014692 0.023043351
-0.0054688575 0.0056677312 -0.0010320705
0.010718267 -0.04227829 0.023664357
0.0080818236 0.0021653292 0.01968747
-0.03244675 -0.020916466 0.02601672
-0.028704397 -0.027254712 0.02603687
0.011294465 -0.03640347 -0.0029468911
-0.032362908 -0.016414061 0.00096415851
-0.0069602723 -0.03697833 0.026337186
-0.050477665 -0.038503964 -0.00097142591
0.0098478235 -0.032320775 -0.0030239611
0.0081675248 0.0019009066 0.0069915047
-0.028864693 0.019650057 0.0076482771
0.012048079 -0.0044479184 0.029735841
-0.025057744 0.012751749 -0.0013752262
0.0080424482 -0.045895554 -1.6665799e-05
-0.020768829 -0.052628972 0.026617192
-0.055062257 -0.018640848 -0.00094716944
-0.011569902 -0.0615068 0.0024924031
-0.01053801 -0.020749927 0.00040383358
-0.00034497827 0.01155899 0.0282786
-0.055213198 -0.021494886 -0.00094585272
-0.064526856 -0.015257826 0.027434684
-0.045333225 -0.059402108 0.022239788
-0.039979093 0.0038714479 0.026772287
-0.027303454 -0.017596565 0.0010264944
-0.033836327 -0.017388392 0.0010131211
-0.03483266 -0.063220203 0.025778677
0.0066250376 -0.032098126 0.027230106
-0.03063794 -0.061338831 0.027338086
-0.038475864 -0.01274964 0.00043171292
-0.031526349 -0.023598814 0.0011137997
-0.014053466 -0.062566362 0.029832445
-0.0012637839 -0.014597216 0.026368055
-0.062321119 -0.043159977 0.00089821336
0.0033721174 -0.052060541 0.013366187
-0.014581686 -0.061584733 -0.0017512259
-0.012382312 -0.061814457 0.010675026
0.0057135746 0.00035638077 -0.002989386
-0.024143022 -0.063653529 -0.00029141555
-0.062022433 -0.0070353663 -0.0029321238
-0.032852061 0.01406434 0.026825029
-0.045877706 -0.043383695 0.026721187
0.010708686 -0.042036545 0.013542763
-0.037213705 0.0095097804 0.02703931
-0.050061766 -0.0017240703 0.026512042
-0.062492926 -0.041744296 -0.0012119584
-0.046314336 -0.039721254 0.026263664
-0.039125443 -0.0174185 0.026129112
-0.035685062 -0.06297186 0.0075240163
-0.031804971 -0.0070423605 9.8774879e-05
-0.049006835 -0.012893455 -0.00023277334
0.015704233 -0.026195243 0.018866226
-0.053405806 0.00080343435 0.02670975
-0.029017646 0.019724395 0.018133832
-0.0013011011 0.0049373969 -0.0029205778
-0.049490269 -0.016303742 0.026290875
-0.023393169 -0.031743672 0.026075481
-0.0084245652 0.015785212 0.0082652327
0.013168341 -0.036764592 0.0023820691
-0.045877915 -0.041224658 0.026258495
-0.05669881 -0.050789215 0.015382345
0.0020283051 -0.053317651 0.018735001
-0.062455818 -0.043234184 0.012128985
-0.030057028 0.019840254 0.02800481
9.5802767e-05 -0.024247633 -0.00035601004
-0.0682889 -0.028416239 0.028689113
-0.0084092021 -0.053108208 -0.0022525839
0.013419513 -0.0077512828 0.0082217762
-0.040643558 0.017228197 0.023572993
0.015453912 -0.028518621 0.016767437
-0.010436997 -0.024082804 0.00031531195
0.00015910031 -0.051976785 -0.0029738552
-0.010826578 -0.034562763 0.026237838
-0.03365422 -0.050372839 0.026783653
-0.029140737 -0.033266991 0.026067585
0.012062973 -0.040830314 0.029376842
-0.002528009 0.012632877 0.023644583
-0.064476736 -0.0053133531 0.017978437
-0.067707568 -0.026442956 0.0049001686
-0.019728221 0.019273549 0.026412144
-0.036968939 -0.058601167 0.027509052
-0.035116192 -0.022702778 0.0010579857
-0.034276608 -0.051608369 -0.0010736283
-0.065578401 -0.0081437035 0.026536584
-0.031282973 -0.013364375 0.00092944806
-0.064270124 -0.039603025 0.0047668358
0.015283309 -0.013837892 0.012137165
-0.042947277 -0.03896001 0.026261901
0.0030739871 -0.0003271084 0.026659161
-0.055763137 -0.0059569292 0.026950616
-4.0426821e-05 0.010945331 0.010141021
-0.0014048878 -0.0041966718 -0.0010489647
0.0023985459 -0.028450824 0.026787318
-0.037567683 -0.0048438478 0.026237845
-0.020376559 -0.064033069 0.02995139
-0.013734555 -0.054340839 0.027163176
-0.032721646 0.011654064 -0.00040709585
-0.0064315395 -0.035243277 0.026330121
-0.032508373 -0.010517638 0.026122319
0.0087850653 -0.02219972 -0.0013995692
-0.05053829 0.0027488139 0.026959723
-0.0058183409 -0.048106704 0.026790753
-0.024246302 -0.016336612 0.00099489733
-0.055249315 -0.04143583 -0.00098074076
0.0030758197 0.0045716763 -0.0030307253
-0.045492295 -0.01102405 0.026272755
-0.034473166 -0.063152365 0.00077217142
-0.001642492 0.0022114823 -0.0010350824
-0.033303458 0.019189497 0.020996552
-0.023190036 0.010560254 -0.00013372072
-0.065485634 -0.0250974 -0.0027171436
-0.046537146 0.014520759 0.007550518
-0.053534344 -0.0093238093 0.026716694
-0.021453632 0.016938936 -0.0030705794
-0.022544747 -0.0605557 0.027528886
0.016175978 -0.026250608 0.028765306
-0.062727012 -0.025704132 0.026700974
0.0072958358 -0.047685601 0.023684856
-0.038686294 0.01788489 0.02225307
-0.047793314 0.013852547 0.0066257869
-0.035528809 -0.016001038 0.00098566164
-0.054603435 -0.031622246 0.026743542
-0.063030005 -0.042081527 0.025605241
-0.046431355 0.014333216 0.00024470536
-0.0023418241 0.01211029 0.029477483
0.0075416644 -0.022632213 -2.6477222e-05
-0.015751757 -0.027405545 0.0008128006
-0.047541566 -0.047009099 -0.00015005661
-0.015425631 0.0091067161 0.026837066
-0.063764155 -0.022869036 0.027470179
0.0035403324 -0.05193866 0.011780147
-0.055798952 -0.051616099 0.025690481
-0.026284635 -0.001636514 0.0003935541
-0.00060584932 0.00056054979 -0.00080531841
0.014465633 -0.03327582 0.01863841
0.0092164492 -0.0064681252 0.027655579
-0.066332243 -0.022260938 -0.0025783633
-0.011139111 -0.027813986 0.026196815
0.0085082855 -0.017448045 0.027059264
0.008164254 -0.046410233 0.026524801
-0.025297668 -0.064165235 0.003235288
-0.03053714 -0.045643952 0.026292503
0.00025379413 -0.032649145 0.026623389
-0.067273065 -0.011012607 0.028475283
-0.060633712 -0.046026759 0.0055725556
0.00023218342 -0.002008853 0.026899666
-0.018086951 -0.057721075 -0.0028831712
-0.021234101 -0.042280532 0.026240246
-0.03245756 -0.063656241 0.024152391
-0.049363457 -0.018292895 0.026293196
-0.045644157 -0.059114635 0.029821437
-0.064608008 -0.03889301 0.013829162
0.015128234 -0.017761316 -0.00043183909
-0.067470685 -0.028785238 0.022482567
-0.05226538 -0.04678186 -0.0021687818
-0.013540813 -0.06223046 0.020183321
-0.063306913 -0.03968535 -0.0016721187
-0.047000326 0.0066749286 0.026763754
-0.015307222 0.0037465326 -0.00078433048
-0.031479832 0.019352768 0.0083588008
-0.025800018 -0.046861142 0.026311699
-0.065711491 -0.036048241 0.020531228
-0.0066423044 -0.053610675 0.026905369
-0.057308599 -0.025057796 0.026506707
-0.035634905 -0.035231862 0.026147474
-0.038958147 -0.062028881 0.011901522
0.013864283 -0.035175424 0.01593429
-0.040741108 -0.051635064 0.026748076
-0.061323151 -0.028549906 -0.0021347243
-0.058422051 0.0045958124 0.0010353492
-0.032845106 -0.058439232 0.026845623
-0.013497284 0.018619016 0.029747123
0.01548124 -0.027817702 0.012841795
0.0056093065 -0.0029399702 0.026962107
-0.029422771 -0.018511042 0.025977122
-0.025793646 -0.018091748 0.026021454
-0.042075947 0.0087614106 -0.0013899361
0.0097340643 -0.00031923177 0.022910684
0.011715204 -0.0039454922 0.0073979851
0.0060326755 0.0048400704 0.00074146502
-0.031666044 -0.05940662 0.027328705
-0.061980352 -0.031723682 0.026997905
-0.063578971 -0.041063961 0.023558237
-0.050305925 0.012194227 0.011333301
-0.011698175 -0.054305755 -0.0020763415
0.0077791531 0.002643045 0.023385927
-0.010208344 -0.02228651 0.00034392194
0.0087733753 -0.045569152 0.025510559
-0.059975564 -0.042113181 0.027357852
-0.058182999 -0.011950182 0.026988517
-0.044462848 -0.048794076 -0.00031672497
-0.054742947 0.00797759 -0.00022043622
-0.06038966 -0.046396684 0.014251865
0.00026935904 -0.047871821 0.026845314
-0.040192872 0.017198447 0.029785909
-0.029503804 -0.05188654 -0.0011251245
-0.031012118 0.0037637716 0.026296908
-0.023877881 -0.059089709 0.026905935
-0.059018217 -0.048156288 0.016680352
0.0069615454 -0.03304188 -0.0013299829
-0.058099534 -0.037050992 -0.0018450356
0.0071912799 0.0033392604 0.018595632
0.0052717831 -0.050190084 0.018578699
-0.023060055 -0.015401312 0.00095880654
-0.029583331 -0.03174106 0.026055837
-0.0055373516 -0.0037910698 0.026330501
-0.019049264 -0.0092502609 0.026142189
-0.067074537 -0.012932198 0.015389681
-0.064872012 -0.023355739 -0.0026410462
-0.0556591 -0.051915701 0.015569866
0.0028027587 -0.007842998 -0.00055293506
-0.0049173664 -0.023639273 0.0001665545
-0.043977931 0.015789896 0.010168482
-0.012762362 0.014641836 0.027548082
-0.011638423 0.015685126 0.027331226
-0.013070036 -0.036940441 0.00041160904
-0.044631962 -0.059718341 0.019752
-0.024729835 0.019719256 0.0036376128
-0.035514832 -0.063030586 0.013992594
-0.068030916 -0.020664323 0.012909773
-0.022364702 0.019670568 0.018299092
-0.028604165 5.1848852e-05 -0.00011044729
-0.0047646477 -0.05827288 0.02711634
-0.030049097 0.019522814 0.011317085
0.015654396 -0.026266038 0.0066387779
-0.030742403 -0.042971857 0.026241822
0.0063542761 0.0044405609 0.016837943
-0.062336095 -0.0010821503 0.016511748
-0.0046638143 -0.037819192 0.026318572
0.0068235975 -0.048258707 0.016938828
0.0023751564 -0.026769083 0.026724838
0.010632984 -0.041865826 0.029461326
-0.040800732 -0.017350826 0.026136687
0.0033569275 -0.012121474 -0.0010413533
-0.016687101 -0.002886978 0.026274076
0.011727615 -0.02919204 -0.0030982401
-0.033959728 -0.05246029 0.026510991
-0.019100064 -0.063578971 0.015046121
-0.0070516467 -0.059515707 0.015149158
-0.0049078846 -0.026006967 3.4461158e-05
-0.056908995 -0.0024200089 0.02671076
-0.055955905 0.0072375587 0.027384777
-0.0043714335 0.0096299527 -0.0031012951
-0.0012865055 -0.055964816 0.026234912
-0.044729762 -0.060254045 0.029908506
-0.067767851 -0.016532809 0.008689764
-0.058924612 -0.031419575 7.147951e-05
-0.039822761 -0.061382279 0.00034558645
0.013700445 -0.032725226 0.028735796
-0.042494096 -0.0040291958 -0.00031342031
-0.020146998 0.0048187315 0.026374677
-0.061749138 -0.04428196 0.0078676771
-0.033747416 -0.062864669 0.029077213
-0.0051708198 -0.058515958 0.0031724377
-0.052641153 -0.029477855 0.026333747
-0.018356819 -0.06356857 0.029525965
-0.042061608 -0.034111194 0.00058794027
-0.066563472 -0.0111153 0.0018385581
-0.013357158 -0.018851794 0.026143573
-0.038497068 0.017929727 0.01911843
-0.057288684 -0.041578028 0.026716469
-0.022026263 -0.06393487 0.006299925
0.015344454 -0.029394722 0.02108727
-0.023615014 0.019764427 0.0066004661
0.0016142974 -0.044310205 -0.0021505018
-0.015238675 0.0183836 0.023972712
-0.05533867 -0.052310843 0.012728117
0.014062182 -0.0343979 0.0030003225
-0.051852033 0.010986922 0.011485154
-0.061340664 -0.033689067 -0.0028563421
-0.0064659361 0.014886637 0.0048300675
-0.066768028 -0.032144532 0.011326574
-0.068124905 -0.022732049 0.0016443672
-0.046009652 0.0037793715 -0.00022657789
-0.063832171 -0.012504453 -0.0028863889
-0.011754903 -0.061585359 0.02157764
-0.026205901 -0.064705513 0.028143924
0.0022751261 0.0075180959 -0.0019518086
0.0092945267 -0.044802204 0.022863612
-0.060428504 0.0010969631 -0.001000337
-0.067470588 -0.017473977 -0.00067236432
0.013504264 -0.007759199 0.017413575
-0.062012136 -0.043915536 0.01079622
0.0010131603 -0.037183043 0.026631296
0.0021757998 -0.053171713 0.014964704
-0.022047885 -0.044320811 -0.00022822974
-0.052702989 -0.054485716 0.024496028
-0.056643739 -0.012038036 0.026556578
-0.019412121 -0.062444884 -0.0023262159
-0.0405971 -0.038582496 0.00015308606
-0.011378303 -0.007540579 0.00028250139
-0.018981829 -0.0048372317 0.00027460163
-0.055306397 -0.012654723 0.026608564
-0.016633412 -0.058931522 -0.0029541524
-0.0062199021 0.014731169 0.0062611089
-0.011747401 0.01715247 0.013867323
-0.032307263 -0.063653305 0.018757571
0.00089745538 0.0048012976 0.027481746
-0.039145265 -0.025147781 0.0010813535
-0.043887764 0.01479602 0.02769359
-0.0077381721 -0.011595784 0.00020488069
-0.018922079 -0.063551605 0.026491215
-0.048525162 0.0068338015 0.026770977
0.016051898 -0.023179591 0.025378363
-0.037624419 -0.062460452 0.0063131782
0.0091211945 -0.044970017 0.026964901
-0.053944744 -0.051712785 -0.0023858794
-0.054719519 -0.007331369 -0.00045196677
-0.046110097 -0.042934649 -0.00080861582
-0.045079932 -0.053112827 -0.0026771349
-0.0084456457 -0.059711199 -0.00076475966
-0.020885177 -0.0096802954 0.00092848373
-0.05117479 -0.046830747 0.026810331
-0.027036935 -0.042459507 0.00035167835
0.013913903 -0.0088139959 0.018350217
-0.014778619 -0.014418855 0.026141047
-0.01383771 -0.0049129594 0.00014123146
-0.05191227 0.010911969 0.025501572
-0.0069073988 0.015476728 0.030127821
-0.0091524636 -0.0096136015 0.026280899
0.0077161291 -0.031296872 -0.0016471858
-0.0073606642 -0.042550512 -0.000755721
-0.067852944 -0.025863936 0.022813261
0.012090155 -0.037291463 -0.0017146842
-0.017146304 -0.0049558878 0.026217744
-0.056351922 0.0045018657 -0.0026508346
-0.0086098304 -0.012910841 0.00046355513
0.0084869377 -0.046063535 0.016580874
-0.029517837 -0.043286379 0.00021110437
-0.022921525 0.012421728 0.027050443
-0.036361624 0.006684137 0.026670344
0.0022003225 0.0079591293 0.028486989
-0.013711711 0.0023520095 0.026362998
-0.00037196919 -0.021761024 0.026388917
-0.056381352 -0.050918326 0.027234454
-0.025073275 0.019922646 0.015281104
0.0039368425 0.0070992634 0.011986669
-0.048795197 -0.011530144 0.026309835
-0.040284012 -0.061048634 0.029246984
-0.0096020764 0.016312761 0.0074601988
0.0020953445 -0.024469847 0.026611336
-0.038102314 0.018051744 0.023851665
-0.035861164 -0.05538962 -0.0012131785
-0.014908825 -0.029755536 0.026140235
-0.043143995 -0.010488352 0.026244223
-0.037423994 -0.035199624 0.026155956
-0.026463754 -0.038759295 0.026156569
-0.019316746 -0.062566817 0.027701652
-0.043189779 0.0034433897 -0.0010582586
-0.029998071 -0.063880458 0.01102572
-0.0062927832 -0.0095986277 0.026322473
0.0064159487 0.0037746127 -0.00017669344
-0.025466055 -0.063766912 0.029722454
-0.013271889 -0.060309559 -0.0027129184
-0.039774541 -0.0008854795 -0.00037901779
-0.038940258 -0.062033638 0.010273453
-0.036138099 -0.0022381889 0.026260644
-0.045673557 -0.001837649 0.026440477
-0.05944027 -0.031725261 0.026964862
-0.0031950008 0.013185233 0.015174739
0.0060851923 -0.049132619 0.020468786
-0.044056259 -0.060074825 0.0034526824
-0.064917222 -0.038142279 0.012148242
-0.027185379 -0.04620257 -0.00023863713
-0.03342367 -0.04455778 -0.00018159971
5.6456178e-05 -0.054952797 0.0236989
-0.057456501 0.0049299495 -0.0010670335
-0.011193343 -0.00490851 0.026309771
-0.049115676 -0.00058966054 -0.00074839703
-0.04197932 -0.060906667 0.0077043218
-0.042768076 -0.020124778 0.00023524016
-0.058723435 -0.034690671 0.026925527
-0.062005103 -0.043949112 0.021864114
0.015032393 -0.01240545 0.016801955
-0.062471811 -0.022285724 0.026495319
0.015798919 -0.014156446 0.029343762
0.015551622 -0.027397398 0.017734356
-0.038679853 0.011799426 0.026641471
-0.0011198998 -0.022012958 -0.00037053204
-0.004528868 -0.058148723 0.013581305
-0.041449636 -0.021136258 0.00063605001
-0.046454262 -0.029758414 0.00016017341
-0.0060819364 -0.00079401641 -0.0011798813
0.01308966 -0.037040044 0.0063583171
0.0052764006 0.0045952108 -0.0016100059
-0.036397077 -0.059925463 0.02740103
-0.050435819 -0.044041943 -0.00016817049
0.0156547 -0.026541511 0.014347638
-0.066410311 -0.033602633 0.011669383
0.012552614 -0.016026614 0.027511222
-0.024513114 -0.0016813999 0.00025060965
-0.039676391 -0.061045069 -0.001289113
-0.020851258 -0.042770416 0.00012848157
-0.032916218 -0.050883748 -0.0010536719
0.01547672 -0.028240383 0.015046083
-0.045375962 0.0063609616 0.02708221
-0.039020952 -0.0066272831 0.00037782738
-0.061935924 -0.015162319 -0.0027578752
-0.013004126 0.012877353 -0.0029280775
0.0032463963 -0.041681029 0.026945362
0.0041414117 0.0062258141 -0.00095495069
0.010093505 -0.043319836 0.011276313
-0.0098957792 -0.06015135 -0.0012214198
-0.032932475 -0.063184187 0.0002231351
-0.012121077 -0.01237695 0.00023727267
-0.018217249 -0.021682033 0.00093644607
-0.023762837 -0.042911075 0.00031910569
-0.021491885 -0.063924879 0.012530899
-0.039952829 -0.0023358581 -0.00031998596
-0.016927741 -0.035621993 0.00030287571
-0.052731819 0.010308523 0.003582322
-0.021799669 0.014850229 0.02711275
5.6856866e-06 -0.054934539 0.027070213
-0.067970462 -0.024073321 0.023334876
-0.026087981 0.0054236511 -0.00064741122
-0.028649166 0.019767812 0.024343815
-0.067442782 -0.02889847 0.016906768
-0.020364136 -0.047738321 0.026293371
-0.037784807 -0.024441209 0.0010094325
0.01398905 -0.009730434 0.0012585524
-0.051351558 -0.0031810834 -0.00073697814
-0.056273449 0.0057635237 -0.0016765228
-0.039910626 0.017436504 0.0079762116
-0.038627293 0.014166082 -0.0029924703
-0.017039642 -0.063178197 0.014411435
-0.027916789 -0.062265698 0.027247706
-0.021288717 -0.038772572 0.00030447665
0.0077760899 -0.039411195 0.027541645
0.0053154253 -0.050017081 0.0016662264
-0.040688995 -0.053079203 -0.00033594298
-0.02995377 -0.058336712 0.026634257
-0.047999837 -0.057896234 0.012624887
-0.041581318 0.013358847 0.027551822
-0.037693623 -0.034225184 0.00041418656
0.013422415 -0.0080165369 0.0024281433
-0.01329508 -0.045248784 0.026324684
-0.03355616 0.002774612 -0.0003317954
-0.029805005 -0.063604943 0.00033111067
-0.043274842 0.00374429 0.026543941
-0.0062567433 -0.012234053 -9.9848083e-05
-0.014646545 -0.02326801 0.00088937808
-0.014346522 0.0071919886 0.026456643
-0.0069029536 -0.027468454 0.026278019
-0.06249034 -0.043116279 0.02443835
-0.021569863 -0.056663234 0.027021969
-0.068538874 -0.023384184 0.028669303
-0.028615579 -0.056884814 -0.00094577693
-0.0050812196 -0.021065306 0.026296271
-0.027000437 -0.057266288 -0.0011490781
0.015003343 -0.030937336 0.011060791
-0.040995948 0.017059263 0.02189726
-0.044168673 0.015709447 0.013689691
-0.010328741 -0.0090772891 0.00034071587
-0.024531063 0.009818255 -0.00060647633
-0.018682646 0.019113297 0.0013222947
-0.025020959 0.015781462 -0.0029667693
-0.0023584049 -0.056732226 0.0045637391
-0.043631449 -0.060191017 0.021249983
-0.0678837 -0.018104758 0.020191299
-0.0051239813 0.014144886 0.0088605136
-0.047767259 -0.013758594 -0.00029634166
-0.042681128 -0.014418404 0.026218561
-0.067724302 -0.026394133 0.0068688164
0.011374969 -0.0046394952 -0.0012359425
-0.050826121 -0.026001541 0.02629612
-0.02324295 -0.064666755 0.029529575
-0.022686031 0.019614214 0.027609438
-0.040325947 -0.022124685 0.0011917816
-0.063137561 -0.0025792189 0.009832615
0.00083422032 -0.022585727 0.026406618
-0.031010523 -0.020401007 0.026014445
-0.020542178 -0.050187647 -0.00087219442
-0.024354575 0.019797016 0.026833402
-0.021663055 -0.058705021 -0.0029022552
-0.024738008 -0.061186917 -0.0029283632
-0.060276188 -0.046329062 0.026680846
-0.0083013047 0.015743833 0.0062079388
0.0087217921 -0.032511819 0.026720226
-0.041790508 0.016758054 0.01495557
0.01600267 -0.021774102 0.020081909
0.0010471577 -0.054181404 0.018016264
-0.037690684 -0.060178235 -0.0028927322
-0.011948962 -0.0043262895 -0.0002129432
-0.057526082 0.0057087741 0.008249701
-0.067489892 -0.028459819 0.010148667
-0.019685365 -0.02095913 0.0009324876
-0.01368707 0.017244229 0.028778568
-0.00083310565 -0.055664625 0.022711433
-0.05705769 0.0062184785 0.0053260084
-0.067125104 -0.013408632 0.023138657
-0.036504064 -0.0627722 0.021976545
0.0094145872 -0.038797367 -0.0031697343
0.0050717089 -0.050360929 0.022082811
-0.068263434 -0.01799551 0.030027457
-0.032889418 0.019237421 0.017954212
0.00066764245 -0.04561308 -0.0022243462
-0.046393383 0.014587283 0.023489853
-0.048388239 0.01414879 0.028637767
-0.052369885 -0.024423709 0.026291437
-0.067236297 -0.013979082 0.0039120945
0.014130673 -0.0097303372 0.029660985
-0.023849066 -0.006326986 0.00030591956
-0.041275226 -0.0011004052 -0.00033097545
0.013642648 -0.023301676 0.027431846
-0.025310634 -0.026055358 0.0010823646
-0.011815976 0.017242093 0.026501225
-0.021444749 0.0081988741 -0.00099566777
-0.063427806 -0.016259333 0.027499445
-0.008733239 -0.035105981 1.7029664e-05
0.0058495151 -0.049910784 0.029845698
0.0087051215 0.001567414 0.027782492
-0.017245973 -0.063161463 0.0050534024
-0.013148551 -0.062102631 0.021691808
-0.035464846 -0.063634872 0.029924061
0.015768444 -0.025453132 0.0089850249
-0.052688137 -0.033417296 -0.00074214285
0.013310367 -0.021190798 0.027488735
-0.0028680004 -0.016583037 -0.00033815208
-0.054689717 -0.052945491 0.0070687095
-0.040878262 0.00069934491 -0.00043812854
-0.042505562 -0.060701892 0.018074626
-0.03950274 0.016507396 -0.0020263153
0.014122221 -0.012067811 -0.00064298551
-0.048156232 0.013607939 0.015312341
-0.011772403 -0.060154472 0.027425067
-0.025501352 -0.043288507 0.02624077
-0.027475636 0.018992499 -0.0016902243
-0.051109418 -0.055784229 0.020687796
0.011373278 -0.017157063 0.027482478
-0.0350224 -0.06316857 0.022164511
0.010833095 -0.0021163574 0.020854719
0.006581747 -0.048581392 0.012992157
-0.053171188 -0.033040971 0.026720809
-0.014460182 -0.054126367 -0.00026783394
-0.009864307 -0.06158606 0.028649122
0.0061051315 -0.0085109267 -0.0015197673
-0.01538953 0.017867306 -0.00078606821
-0.056246337 -0.026663078 -0.0010098752
-0.025071636 -0.018501189 0.00095770677
-0.034639467 0.0031455301 0.026273703
-0.023267157 -0.057760678 0.026711741
-0.059785496 -0.020486632 0.027023906
-0.032480888 -0.0234257 0.026022915
-0.017616665 0.01894566 0.025670176
-0.050840378 -0.029643772 0.026277222
-0.060542446 -0.037795976 0.02749791
-0.058015864 -0.049414482 0.0040186974
-0.051466435 0.011292894 0.016505033
-0.058370963 -0.04798146 -0.0012793879
-0.030425046 0.018907048 0.029040778
-0.012301938 -0.049556971 0.026626861
-0.021154573 -0.063896738 0.022507543
-0.0075157182 -0.059754439 0.010394021
-0.053680338 -0.034749404 0.026681181
0.0068269316 -0.048200928 0.0036129504
-0.06622757 -0.034421586 0.020964732
-0.0039754291 -0.0487413 -0.0011943119
0.0034093305 0.0077577834 0.027689077
-0.0436447 -0.053342067 0.026630759
-0.04931983 -0.046402864 0.026986625
-0.006798252 -0.056290314 -0.0030486367
-0.017022327 -0.039681569 0.00036449183
-0.021667574 -0.063869447 0.0021321101
0.0021092023 -0.053231768 0.013326567
-0.052801687 -0.043513741 0.027106153
-0.029090717 -0.039482914 0.026181709
-0.037609339 -0.061654836 -0.0015554009
0.015936116 -0.024134113 0.0214775
0.00047351685 0.0092160748 -0.0017461955
-0.040163886 -0.016156761 0.00069824693
-0.011423275 -0.036668524 0.00029810515
-0.032889154 -0.061652824 0.027256917
-0.017544877 -0.028066395 0.00092898816
0.0063919588 -0.012158262 -0.00018458029
-0.031072354 -0.062398259 -0.0025741525
-0.050225992 -0.051390301 0.027407559
-0.019427147 -0.029937785 0.026073409
-0.056950666 -0.0040665423 -0.0023631244
-0.011365583 -0.048396777 0.026751978
-0.054714084 -0.052473012 0.00040408352
0.0091720726 0.00055315287 0.019991264
-0.031572651 0.019874023 0.030180626
0.015341352 -0.02913552 0.013535782
-0.021986732 -0.029320549 0.0009879967
-0.026085053 0.019258309 -0.001206259
-0.046765678 0.014410144 0.011952769
-0.009279415 -0.058948729 -0.0025559503
-0.035750333 -0.037830327 0.00040125335
-0.035345033 -0.045614116 -0.00023509251
-0.025498148 0.019901073 0.012253737
-0.033455297 0.019056411 0.0037533306
-0.026605865 -0.0040242202 0.026193943
0.0068493676 -0.048214111 0.021639129
0.0032136166 0.0078804195 0.016281115
-0.032136042 0.018727304 0.028904429
-0.0020040288 -0.03385587 -0.00038028578
-0.0051758345 0.011588556 0.027392855
-0.0023900727 -0.036145125 -0.0006340993
-0.045840211 -0.0139195 0.00027693968
0.01233242 -0.039104059 0.023829468
-2.3685436e-05 0.010949507 0.0077133467
-0.011828077 -0.024668779 0.00067267165
0.010135578 -0.043345995 0.027187018
-0.0060364502 -0.033251677 -0.00024617676
0.0010345454 -0.054173093 0.019519854
-0.034076486 -0.03862318 0.026181668
0.007279871 -0.047643747 0.010437603
-0.011696491 -0.016087903 0.00046295862
-0.015929315 -0.038915481 0.026222637
-0.064099975 -0.026733553 0.027487706
-0.053434961 0.0096757896 0.02197405
0.0023155115 0.0032814927 -0.0030194703
-0.031883769 -0.043035209 0.00010986474
-0.0070460406 -0.045510646 -0.0012558685
-0.040996972 0.016310925 -0.0014514036
-0.054779731 0.0085082753 0.0039774589
-0.035254382 -0.06305977 0.012573445
-0.010351354 -0.061072864 0.022247795
0.0010694216 -0.054157823 0.01459764
-0.047794145 -0.021074282 0.026264334
-0.010102928 -0.037785914 -0.00025354314
0.0037798649 0.0038276459 0.027453499
0.0096466579 -0.0080542285 0.027646754
-0.0073546222 0.015339821 0.019098112
-0.026206728 -0.051714122 0.026853062
-0.033068947 -0.018695489 0.001008025
-0.0085660098 -0.059742458 0.029156202
-0.038366325 -0.0081252949 0.0004047007
-0.052676193 -0.054544635 0.022643
-0.0351412 0.018763922 0.011859205
0.0093177781 -0.044747956 0.01598445
-0.046505153 -0.055799663 -0.0028366079
-0.05158069 -0.0067513697 -0.0010186187
-0.058331363 0.0037395707 -0.0013086372
-0.036740143 0.011170037 -0.0016044675
-0.066492453 -0.033423498 0.022661038
-0.067790277 -0.025912842 0.0084123882
-0.02565546 0.018708928 0.027382804
-0.048395738 -0.039603863 -0.00063087477
-0.021975243 -0.020872379 0.0010698445
-0.051503971 -0.0091856858 0.026563842
-0.060298551 -0.028712841 -0.00071437721
-0.015873153 -0.03496886 0.02616919
-0.034966547 -0.026868993 0.026049204
-0.033488553 -0.054457862 0.026864642
-0.04019735 -0.059860222 0.027244993
-0.054211751 -0.027015746 0.026575563
-0.025798289 -0.015441373 0.0010012111
-0.013670206 0.0037723936 -0.0010270405
0.0082230102 -0.046378173 0.024281751
-0.0040469551 -0.040404312 -0.00097756961
0.01568995 -0.016217716 0.018947342
-0.023892246 -0.025487445 0.0009986317
-0.01773105 0.018954419 0.015446935
-0.018612571 -0.063472085 0.024500249
-0.033001117 -0.030155819 0.026042502
-0.0047920253 0.014112053 0.019159246
-0.039103515 -0.058777422 0.027480956
-0.0030210416 -0.048983723 -0.0023626075
-0.062034592 -0.00056290743 0.010143808
0.015026651 -0.012390235 0.02163055
0.0073377006 0.0032276341 0.021344282
-0.012042902 -0.046875767 0.026590271
-0.050636172 -0.017299443 -0.00020807407
-0.046158202 0.0066709798 -0.0015473842
-0.018739266 -0.033744302 0.00091553875
-0.050331406 -0.00014532497 0.026658703
-0.012641548 -0.061887749 0.0081321178
-0.03599054 -0.014265444 0.00095201284
-0.016104041 -0.017231148 0.0008983094
-0.05492752 -0.033295996 0.026535887
-0.0068646222 -0.015246708 0.026288453
-0.059121303 0.0040340251 0.027957425
-0.059375178 -0.047023222 0.00030791527
-0.064087823 -0.0043806816 0.011090983
-0.065888874 -0.0095233601 0.027037606
-0.040491607 0.017197827 0.0059921267
-0.041350294 -0.017390389 0.00044053758
0.0011818567 -0.054021277 0.0037653365
0.0045606513 0.00657641 0.025211306
-0.049898237 -0.019884162 -0.00021039529
-0.0068472037 0.012880089 -0.0029187815
-0.028859466 0.019719712 0.026321556
-0.023944665 0.019860405 0.018675968
-0.043466091 -0.017276851 0.00040891184
-0.0033457601 -0.024807481 -0.00025327152
0.0025225282 -0.038563959 -0.00014768746
0.00094609271 -0.05095505 0.027360139
-0.024161287 -0.011209717 0.026082182
-0.058777429 0.00050738786 0.027303988
-0.041164879 0.016954964 0.0045794384
-0.011502055 0.0054636961 0.026546787
-0.068068072 -0.022223486 0.0035107208
-0.0081146006 0.015800297 0.025746372
-0.031654052 -0.024849299 0.026032561
-0.045879107 0.015662337 0.029415615
-0.0039617717 -0.014914207 -0.00030736494
-0.0048619285 -0.047028989 0.026752934
0.00460685 -0.0093674222 0.026993629
-0.012502467 -0.06185215 0.026968293
0.014194501 -0.033957902 0.026815185
-0.027174821 -0.057762463 0.026710065
-0.017607346 0.013911315 0.027025757
-0.066478506 -0.012207511 0.00018749438
0.013509181 -0.029384959 -0.0028165784
-0.018093038 0.018998241 0.0062238746
-0.013009775 -0.06200007 0.0050600041
-0.028487844 0.019769546 0.022313569
-0.033496112 0.019054538 0.0069298558
-0.029485371 -0.020168077 0.025995495
-0.046613067 -0.040867567 -0.00046276482
0.007356524 -0.012546947 -0.0013839247
0.015944801 -0.020210382 0.011147656
-0.037546225 0.017349355 -0.0016960031
-0.03445122 -0.049829647 -0.00085367798
-0.041386232 0.01691428 0.016450088
-0.034167819 -0.0076047592 0.00028905354
-0.03781319 -0.014482493 0.02613168
0.015971202 -0.020866737 0.012649729
-0.0014506329 0.01185019 0.024400294
-0.0025084738 -0.050291818 -0.0029776567
-0.013539622 -0.03933765 0.0001232724
-0.02138433 -0.015073774 0.026068801
0.0084138494 -0.020215627 0.027104147
-0.0070318016 -0.038703717 0.026344433
-0.021294858 0.012198253 0.027105136
-0.013998277 -0.0090946611 0.0003169477
-0.040161721 -0.0090982774 0.00044392823
-0.022052165 -0.063982107 0.017105928
-0.033951182 -0.03142089 0.026057038
-0.0035559505 -0.032706425 0.026351387
-0.0094839884 -0.033900939 0.026254606
-0.037712578 -0.062511854 0.0092403581
-0.015871471 -0.062865935 0.0046287789
0.014757918 -0.021452632 0.027750067
-0.015651483 0.018397398 0.0096211443
-0.023907498 -0.064064696 0.0036274865
-0.014640257 0.018146256 0.00086411281
-0.029617753 -0.023624547 0.026027258
-0.017237123 0.0040210839 0.02640531
0.0056069186 0.0052663805 0.026559951
-0.015434699 0.011282916 0.026993461
-0.066978291 -0.031233355 0.0099803545
-0.035903752 -0.053324468 -0.00033691182
-0.066401742 -0.033676673 0.01952821
-0.050884254 0.0041085379 -0.0023496835
-0.046579268 0.014527605 0.014155887
-0.051940776 0.010422692 -6.5843371e-05
-0.06505467 -0.037798312 0.0055399863
-0.067920156 -0.017833557 0.012536043
-0.01636531 -0.023055613 0.00093025086
-0.031031135 -0.03746812 0.00050384464
-0.062838495 -0.016304851 -0.0028427851
-0.026029538 -0.0057773613 0.026153378
-0.020529099 0.015553291 -0.0029971977
-0.0073420503 0.015300252 0.016738581
-0.052641392 -0.054723311 0.015546977
-0.049106069 -0.057141013 0.027510509
-0.030211924 -0.040770952 0.026196647
-0.065801807 -0.0084545473 0.0011233247
-0.041289166 -0.0056366059 -8.5481865e-05
-0.053090286 -0.054282039 0.004087464
0.0018319942 0.0091767944 0.021677766
-0.048376493 -0.057768337 0.0091405474
-0.028226372 0.014000276 0.026586635
-0.0587769 -0.034854546 -0.0014803313
-0.011698368 -0.061533734 0.018463613
0.00047299865 0.010348312 0.02204616
0.004631469 -0.0062757954 0.027142337
-0.010594318 -0.053467505 -0.0015141704
-0.055546865 -0.052004449 0.017545175
0.011442512 -0.040908024 0.019918017
-0.003231775 -0.034946643 0.026337948
-0.031916253 -0.026626781 0.026042163
-0.065357864 -0.007455911 0.017708777
-0.033636093 0.019118976 0.024686705
-0.032425407 -0.052572861 -0.00096821768
-0.010761214 0.016821839 0.00096576626
-0.058485854 -0.0083820783 0.026835844
-0.0047963797 -0.008185829 -0.00034742782
-0.057442307 -0.032515477 -0.00010067237
-0.017969176 -0.030844828 0.026109461
-0.065454386 -0.007771885 0.024782177
-0.054552898 0.008605117 0.010866258
-0.059387807 -0.010848125 -0.0012912207
0.013375925 -0.0072913039 0.021103133
-0.025202589 -0.021379333 0.026035137
-0.03044492 0.019600721 0.023155652
-0.047156066 -0.04397079 -0.0011056388
-0.041876454 -0.031370707 0.026175547
-0.037242033 0.0081262514 0.026494712
-0.051743213 -0.033614859 0.026429079
-0.035520505 -0.048699819 -0.00056208367
-0.067141153 -0.013149065 0.013787012
-0.046717744 -0.032544915 0.026255852
0.010584968 -0.034301113 -0.0031208282
-0.0048627965 -5.2801872e-05 -0.0009742917
-0.0099410247 0.015449685 -0.0019971831
0.0081890775 0.0019460894 0.015120178
-0.048598107 -0.0021962621 -0.0010581519
-0.047831427 -0.045191895 -0.0006458502
-0.030092109 -0.0088550849 0.026106015
-0.015719084 -0.0021092489 -0.00026723358
-0.047904331 -0.022536423 0.026278863
0.013404705 -0.036546092 0.020977952
-0.0022014766 -0.056580219 0.0015996309
-0.06315767 -0.0025787307 0.0038090863
-0.062215265 -0.00087511761 0.018197766
-0.021099893 -0.033916328 0.026106805
-0.040303085 0.0086684078 0.027071051
-0.0038969244 -0.050459869 -0.0025254269
-0.049452558 0.012763299 0.0083870394
0.0092157461 0.00034511034 0.0074858358
0.014928005 -0.016289078 0.02883081
-0.024785396 -0.064159334 0.0014569168
0.010581167 -0.02734291 0.026966248
-0.067667887 -0.03157565 0.028930251
-0.014615146 -0.062039252 -0.00032053303
-0.0099773305 -0.0056241504 -0.00027804606
-0.019330254 0.012832932 0.026810901
0.0067993761 -0.025277156 -0.00014915403
0.015421811 -0.028246302 0.0010213342
0.0047917566 -0.022867082 -0.0010675656
-0.049126755 -0.026139421 0.026273878
-0.0036525386 0.00078663894 -0.00051260006
0.010136835 -0.043468609 0.016854063
-0.013399453 -0.027040975 0.0008697047
-0.06804134 -0.021512359 0.0054229577
-0.017599445 -0.043338232 -0.00026561518
-0.02628489 -0.028065182 0.00098326313
-0.039709076 -0.048429959 -0.0010325779
-0.051531009 -0.0018065928 -0.00018387786
-0.049787678 -0.056827489 0.0034114309
-0.033395328 -0.024591431 0.0010806038
-0.047350898 0.0090271067 0.027392678
0.010161506 -0.0011447563 0.0048688846
-0.038658291 0.017876919 0.025926962
0.011891758 -0.012524107 -0.0031111296
-0.027966734 -0.0059790579 0.026164088
0.012408249 -0.038451403 0.0033968484
-0.047961213 -0.016128488 0.02628652
-0.030036144 -0.011531983 0.0009201027
-0.018268365 -0.06068119 0.027389951
0.010591833 -0.042423271 0.0071248952
-0.048570666 -0.032566562 0.026283674
-0.00048327754 -0.010237147 -0.0008151303
-0.032964338 0.01184593 0.027031405
-0.038951639 -0.0055004084 0.026245074
0.015822962 -0.018144114 0.0046721613
0.011872721 -0.027427427 0.027652251
-0.041863333 0.016747061 0.024484031
-0.041689645 0.0092487745 0.026961276
0.010488473 -0.014630832 -0.0030033742
0.016077043 -0.02107266 0.025990201
-0.060379568 0.0010068761 0.028677631
-0.033387586 -0.063462332 0.0036838492
0.015149916 -0.013249612 0.0081803268
-0.031910259 0.019035315 -1.51735e-05
-0.057789616 -0.049655601 0.01196829
-0.030129863 0.0049632317 0.026288277
-0.015010346 0.0020215334 -0.00041392524
0.012778284 -0.037846219 0.0085580423
0.0042311084 -0.040364631 -0.0022453768
-0.035054926 -0.06319958 0.023684245
-0.051098157 -0.055874508 0.017771779
-0.011071434 0.016994778 0.023869555
-0.032444522 -0.063577168 0.013733473
-0.033870582 -0.035681419 0.026128668
-0.064031094 -0.0042190715 0.0014533099
-0.0090235928 -0.055893503 0.027388468
-0.050662018 -0.0086206477 -0.00061728893
-0.015331654 -0.062765338 0.026656583
0.011237159 -0.0030243001 0.011652588
-0.035892695 -0.031448901 0.0010228135
-0.035800457 -0.0077170203 0.02618533
-0.0036315387 -0.031015053 0.026359923
-0.015122089 -0.02587625 0.0008331635
-0.01345747 -0.0109304 0.02618755
0.0049899365 0.0061296336 0.020266606
-0.029726794 -0.012929817 0.026065884
-0.045248218 -0.023183672 0.00054275536
0.0054403082 -0.049901795 0.0251735
-0.043101966 -0.045516983 0.026660256
-0.067881361 -0.017805535 0.006876362
-0.025405362 -0.032825757 0.0009570031
-0.054839853 -0.053495541 0.029605195
0.015839715 -0.018333651 0.0062721977
0.0058698752 -0.0049174437 -0.0027670194
0.0036924067 -0.04957585 0.027327981
-0.027891781 -0.036330685 0.026118916
-0.01829833 0.018998526 0.011311264
-0.031255763 0.012395743 0.026974434
-0.048318882 0.013526832 0.011863684
0.013618767 -0.0082826335 0.0067896391
-0.035118826 -0.059386954 -0.0029371337
-0.065401539 -0.007559116 0.016111881
-0.049160749 -0.02155732 0.02628883
-0.045967907 -0.037611648 0.026255293
-0.052138597 0.010741587 0.021915996
-0.0027890326 -0.050897498 0.026984427
-0.044008888 0.015763771 0.0019776195
0.0099827759 -0.042683043 0.00022878984
-0.019592581 0.006780955 0.026869696
-0.037121817 -0.052413277 -0.00049234339
-0.0025642733 -0.039938062 -0.0011850882
-0.026524819 -0.024949193 0.026018299
-0.060848556 -0.018261112 -0.0013122836
-0.021978009 0.019641146 0.011383791
-0.008014014 -0.023134964 0.00032264015
-0.055359088 -0.024420824 0.026735138
0.0084406454 -0.017926335 -0.001402443
-0.039703317 -0.049570099 0.026611622
0.0024419748 0.0085640689 0.017430058
-0.021085769 -0.019704692 0.0010454287
-0.05182841 -0.055367883 0.0041708471
-0.066171631 -0.0095954211 0.013466203
0.013995659 -0.034793515 0.011962004
-0.056591824 -0.016902978 0.026596606
-0.000125134 -0.055088028 0.010142623
-0.050748248 0.011823206 0.023488238
-0.028317487 -0.011076826 0.026085246
0.0082044844 -0.029623531 -0.0017354887
-0.012884389 -0.044865746 -0.00040186997
0.00018108962 -0.03078104 0.026481301
-0.027035369 -0.03275558 0.00095972291
-0.033457734 -0.063474998 0.016976718
0.0011001474 -0.054135352 0.011699016
-0.055640314 0.00022332293 -0.0029074275
0.0084503675 -0.045978934 0.0056317039
-0.018203432 -0.042347878 0.026282746
0.011213033 -0.040881239 0.0013477709
-0.041781325 -0.061029557 0.021701626
-0.045897201 -0.059114646 0.0099834641
-0.034638125 0.014289692 0.027203392
-0.036449362 -0.062833518 0.024183299
0.010523658 -0.023342058 -0.0029264977
-0.0068485169 0.015093628 0.0034228698
-0.0070591089 0.00053105102 0.026795864
-0.0049844105 -0.058415841 0.015063118
-0.031950373 0.019396693 0.025770579
0.0047060256 -0.00092529471 0.027147222
-0.051513597 -0.055514254 0.02223967
-0.067181885 -0.030320644 0.025057439
-0.012085511 0.017282324 0.012392
-0.00096656714 -0.055738598 0.0070802071
-0.023464911 -0.064059213 0.026276298
-0.040255763 -0.0014263012 0.026296763
-0.058025815 -0.049425736 0.0090976562
-0.065267645 -0.0071747112 0.005891542
-0.036673948 0.011903571 0.02673021
-0.04098732 0.0044674072 -0.0010298134
-0.045569587 -0.050573003 0.027077047
-0.013905451 -0.011796577 0.00042606727
-0.042939257 0.016257321 0.008189532
-0.056996703 0.0070985015 0.028443148
-0.010176087 -0.057727676 -0.0029766699
-0.045014057 0.00090552022 0.026811197
-0.021871638 -0.057459153 -0.0021652177
-0.059286006 -0.036461078 -0.0024996474
-0.037273422 -0.038489997 0.00048843032
-0.057578269 -0.049748182 0.021594256
0.0088838711 0.00094551785 0.016264228
-0.049403016 0.012768012 0.019053031
-0.040297706 -0.011187077 0.0261983
-0.007543962 0.01413139 -0.0022783969
0.015024418 -0.012265155 0.024198797
-0.022199797 -0.064002484 0.014696406
-0.0018244447 -0.056335408 0.0088008977
-0.015387808 -0.050827246 0.026664546
-0.017896829 -0.063234508 0.0022061309
-0.030791342 -0.057322379 -0.0021067513
-0.02983107 -0.028499242 0.0010577557
0.0016083042 -0.042418577 -0.00084578968
0.008364859 -0.014815042 -0.0018248851
-0.060358688 -0.046380967 0.0091059841
-0.01451282 -0.038616061 0.026239175
-0.03114599 -0.063841254 0.017758876
-0.040176701 0.017347667 0.012283861
-0.040401556 0.017307965 0.026109688
-0.021328468 -0.059751645 0.027569357
-0.013550814 0.017753612 0.0044365609
-0.025275704 -0.052054774 -0.0011937597
-0.031275064 -0.063821815 0.025200166
-0.0046051955 -0.01094895 0.026354786
-0.049268462 -0.056543257 -0.00046617791
-0.048613332 -0.057555556 0.020416835
-0.050288405 -0.056458395 0.019026279
-0.047003597 -0.016002577 4.1908053e-05
-0.016672323 -0.057475444 0.026687501
-0.02614422 -0.015901374 0.026051473
-0.0034774425 -0.03516176 -0.00039946107
-0.063362487 -0.038060099 0.027666399
-0.0052493839 -0.056722026 0.027215585
-0.0060770605 -0.059012003 0.025461238
-0.066515535 -0.03326761 0.0070637832
0.012688642 -0.0058353855 0.021359496
0.004771498 -0.031212043 -0.00051056116
-0.01485421 -0.036289971 0.026199825
-0.061148115 -0.021283291 0.026812751
-0.047046587 -0.058478992 0.023781117
-0.059683934 -0.04737749 0.015412522
-0.00079009699 -0.032874834 -0.00068414572
-0.057850912 -0.049546544 0.017033834
-0.020340953 -0.018373366 0.0009769327
-0.016082566 -0.042661998 -0.00021788206
-0.047390226 -0.042144082 -0.00077307085
0.01337839 -0.0076262383 0.0097123804
-0.051615708 -0.054475203 -0.0016019329
-0.063952878 -0.0041720564 0.0088058086
0.0094965883 -0.04435382 0.018907528
0.01233406 -0.039057825 0.025538011
