ply
format ascii 1.0
comment PCL generated
element vertex 526
property float x
property float y
property float z
property uchar red
property uchar green
property uchar blue
property uchar alpha
element camera 1
property float view_px
property float view_py
property float view_pz
property float x_axisx
property float x_axisy
property float x_axisz
property float y_axisx
property float y_axisy
property float y_axisz
property float z_axisx
property float z_axisy
property float z_axisz
property float focal
property float scalex
property float scaley
property float centerx
property float centery
property int viewportx
property int viewporty
property float k1
property float k2
end_header
0.28523335 -0.29660478 0.99500006 152 78 163 255
0.2871286 -0.29660478 0.99500006 152 78 163 255
0.28989524 -0.29749903 0.99800003 152 78 163 255
0.29179621 -0.29749903 0.99800003 152 78 163 255
0.29369715 -0.29749903 0.99800003 152 78 163 255
0.28229144 -0.29559812 0.99800003 152 78 163 255
0.28419238 -0.29559812 0.99800003 152 78 163 255
0.28523335 -0.29470953 0.99500006 152 78 163 255
0.2871286 -0.29470953 0.99500006 152 78 163 255
0.28989524 -0.29559812 0.99800003 152 78 163 255
0.29179621 -0.29559812 0.99800003 152 78 163 255
0.29369715 -0.29559812 0.99800003 152 78 163 255
0.29559812 -0.29559812 0.99800003 152 78 163 255
0.28123334 -0.29458001 1.001 152 78 163 255
0.28229144 -0.29369715 0.99800003 152 78 163 255
0.28419238 -0.29369715 0.99800003 152 78 163 255
0.28523335 -0.29281428 0.99500006 152 78 163 255
0.2871286 -0.29281428 0.99500006 152 78 163 255
0.28989524 -0.29369715 0.99800003 152 78 163 255
0.29179621 -0.29369715 0.99800003 152 78 163 255
0.29369715 -0.29369715 0.99800003 152 78 163 255
0.29559812 -0.29369715 0.99800003 152 78 163 255
0.29749903 -0.29369715 0.99800003 152 78 163 255
0.28123334 -0.29267335 1.001 152 78 163 255
0.28229144 -0.29179621 0.99800003 152 78 163 255
0.28419238 -0.29179621 0.99800003 152 78 163 255
0.28609335 -0.29179621 0.99800003 152 78 163 255
0.2879943 -0.29179621 0.99800003 152 78 163 255
0.28902382 -0.29091907 0.99500006 152 78 163 255
0.29091907 -0.29091907 0.99500006 152 78 163 255
0.29281428 -0.29091907 0.99500006 152 78 163 255
0.29559812 -0.29179621 0.99800003 152 78 163 255
0.29749903 -0.29179621 0.99800003 152 78 163 255
0.2994 -0.29179621 0.99800003 152 78 163 255
0.28123334 -0.29076669 1.001 152 78 163 255
0.28229144 -0.28989524 0.99800003 152 78 163 255
0.28419238 -0.28989524 0.99800003 152 78 163 255
0.28523335 -0.28902382 0.99500006 152 78 163 255
0.2871286 -0.28902382 0.99500006 152 78 163 255
0.28902382 -0.28902382 0.99500006 152 78 163 255
0.29004189 -0.2881524 0.99200004 152 78 163 255
0.29193145 -0.2881524 0.99200004 152 78 163 255
0.29382098 -0.2881524 0.99200004 152 78 163 255
0.29660478 -0.28902382 0.99500006 152 78 163 255
0.2976 -0.2881524 0.99200004 152 78 163 255
0.29948953 -0.2881524 0.99200004 152 78 163 255
0.28123334 -0.28885999 1.001 152 78 163 255
0.28229144 -0.2879943 0.99800003 152 78 163 255
0.28419238 -0.2879943 0.99800003 152 78 163 255
0.28523335 -0.2871286 0.99500006 152 78 163 255
0.2871286 -0.2871286 0.99500006 152 78 163 255
0.28902382 -0.2871286 0.99500006 152 78 163 255
0.29004189 -0.28626287 0.99200004 152 78 163 255
0.29193145 -0.28626287 0.99200004 152 78 163 255
0.29382098 -0.28626287 0.99200004 152 78 163 255
0.29660478 -0.2871286 0.99500006 152 78 163 255
0.2976 -0.28626287 0.99200004 152 78 163 255
0.29948953 -0.28626287 0.99200004 152 78 163 255
0.30137908 -0.28626287 0.99200004 152 78 163 255
0.28123334 -0.28695336 1.001 152 78 163 255
0.28059432 -0.28437334 0.99200004 152 78 163 255
0.28248382 -0.28437334 0.99200004 152 78 163 255
0.28437334 -0.28437334 0.99200004 152 78 163 255
0.28626287 -0.28437334 0.99200004 152 78 163 255
0.28902382 -0.28523335 0.99500006 152 78 163 255
0.29004189 -0.28437334 0.99200004 152 78 163 255
0.29193145 -0.28437334 0.99200004 152 78 163 255
0.29382098 -0.28437334 0.99200004 152 78 163 255
0.29660478 -0.28523335 0.99500006 152 78 163 255
0.2976 -0.28437334 0.99200004 152 78 163 255
0.29948953 -0.28437334 0.99200004 152 78 163 255
0.30046761 -0.28351334 0.98900002 152 78 163 255
0.30235142 -0.28351334 0.98900002 152 78 163 255
0.28123334 -0.28504667 1.001 152 78 163 255
0.28314003 -0.28504667 1.001 152 78 163 255
0.28248382 -0.28248382 0.99200004 152 78 163 255
0.28437334 -0.28248382 0.99200004 152 78 163 255
0.28626287 -0.28248382 0.99200004 152 78 163 255
0.28902382 -0.2833381 0.99500006 152 78 163 255
0.29091907 -0.2833381 0.99500006 152 78 163 255
0.29281428 -0.2833381 0.99500006 152 78 163 255
0.29470953 -0.2833381 0.99500006 152 78 163 255
0.29571047 -0.28248382 0.99200004 152 78 163 255
0.2976 -0.28248382 0.99200004 152 78 163 255
0.29948953 -0.28248382 0.99200004 152 78 163 255
0.30046761 -0.28162953 0.98900002 152 78 163 255
0.30235142 -0.28162953 0.98900002 152 78 163 255
0.28016382 -0.2839886 1.0040001 152 78 163 255
0.28123334 -0.28314003 1.001 152 78 163 255
0.28314003 -0.28314003 1.001 152 78 163 255
0.28419238 -0.28229144 0.99800003 152 78 163 255
0.28609335 -0.28229144 0.99800003 152 78 163 255
0.2871286 -0.28144288 0.99500006 152 78 163 255
0.28902382 -0.28144288 0.99500006 152 78 163 255
0.29091907 -0.28144288 0.99500006 152 78 163 255
0.29281428 -0.28144288 0.99500006 152 78 163 255
0.29470953 -0.28144288 0.99500006 152 78 163 255
0.29571047 -0.28059432 0.99200004 152 78 163 255
0.2976 -0.28059432 0.99200004 152 78 163 255
0.29948953 -0.28059432 0.99200004 152 78 163 255
0.30137908 -0.28059432 0.99200004 152 78 163 255
0.27908286 -0.28291908 1.0070001 152 78 163 255
0.28016382 -0.28207621 1.0040001 152 78 163 255
0.28207621 -0.28207621 1.0040001 152 78 163 255
0.28314003 -0.28123334 1.001 152 78 163 255
0.28504667 -0.28123334 1.001 152 78 163 255
0.28609335 -0.28039047 0.99800003 152 78 163 255
0.2879943 -0.28039047 0.99800003 152 78 163 255
0.28902382 -0.27954763 0.99500006 152 78 163 255
0.29091907 -0.27954763 0.99500006 152 78 163 255
0.29281428 -0.27954763 0.99500006 152 78 163 255
0.29470953 -0.27954763 0.99500006 152 78 163 255
0.29571047 -0.27870476 0.99200004 152 78 163 255
0.2976 -0.27870476 0.99200004 152 78 163 255
0.29948953 -0.27870476 0.99200004 152 78 163 255
0.30137908 -0.27870476 0.99200004 152 78 163 255
0.27908286 -0.28100097 1.0070001 152 78 163 255
0.28100097 -0.28100097 1.0070001 152 78 163 255
0.28207621 -0.28016382 1.0040001 152 78 163 255
0.2839886 -0.28016382 1.0040001 152 78 163 255
0.28504667 -0.27932668 1.001 152 78 163 255
0.28695336 -0.27932668 1.001 152 78 163 255
0.2879943 -0.27848953 0.99800003 152 78 163 255
0.28989524 -0.27848953 0.99800003 152 78 163 255
0.29179621 -0.27848953 0.99800003 152 78 163 255
0.29281428 -0.27765238 0.99500006 152 78 163 255
0.29470953 -0.27765238 0.99500006 152 78 163 255
0.29660478 -0.27765238 0.99500006 152 78 163 255
0.2976 -0.27681524 0.99200004 152 78 163 255
0.29948953 -0.27681524 0.99200004 152 78 163 255
0.30137908 -0.27681524 0.99200004 152 78 163 255
0.27799046 -0.27991429 1.01 152 78 163 255
0.27991429 -0.27991429 1.01 152 78 163 255
0.28100097 -0.27908286 1.0070001 152 78 163 255
0.28291908 -0.27908286 1.0070001 152 78 163 255
0.2839886 -0.27825147 1.0040001 152 78 163 255
0.28590095 -0.27825147 1.0040001 152 78 163 255
0.28695336 -0.27742001 1.001 152 78 163 255
0.2879943 -0.27658856 0.99800003 152 78 163 255
0.28989524 -0.27658856 0.99800003 152 78 163 255
0.29179621 -0.27658856 0.99800003 152 78 163 255
0.29369715 -0.27658856 0.99800003 152 78 163 255
0.29559812 -0.27658856 0.99800003 152 78 163 255
0.29660478 -0.27575716 0.99500006 152 78 163 255
0.2976 -0.27492574 0.99200004 152 78 163 255
0.29948953 -0.27492574 0.99200004 152 78 163 255
0.30137908 -0.27492574 0.99200004 152 78 163 255
0.27606666 -0.27799046 1.01 152 78 163 255
0.27799046 -0.27799046 1.01 152 78 163 255
0.27991429 -0.27799046 1.01 152 78 163 255
0.28183809 -0.27799046 1.01 152 78 163 255
0.28291908 -0.27716479 1.0070001 152 78 163 255
0.28483719 -0.27716479 1.0070001 152 78 163 255
0.28590095 -0.27633905 1.0040001 152 78 163 255
0.28695336 -0.27551332 1.001 152 78 163 255
0.28885999 -0.27551332 1.001 152 78 163 255
0.29076669 -0.27551332 1.001 152 78 163 255
0.29267335 -0.27551332 1.001 152 78 163 255
0.29458001 -0.27551332 1.001 152 78 163 255
0.29648668 -0.27551332 1.001 152 78 163 255
0.29839334 -0.27551332 1.001 152 78 163 255
0.2994 -0.27468762 0.99800003 152 78 163 255
0.30130094 -0.27468762 0.99800003 152 78 163 255
0.30320191 -0.27468762 0.99800003 152 78 163 255
0.27606666 -0.27606666 1.01 152 78 163 255
0.27799046 -0.27606666 1.01 152 78 163 255
0.27991429 -0.27606666 1.01 152 78 163 255
0.28183809 -0.27606666 1.01 152 78 163 255
0.28291908 -0.27524671 1.0070001 152 78 163 255
0.28483719 -0.27524671 1.0070001 152 78 163 255
0.28590095 -0.27442667 1.0040001 152 78 163 255
0.28781334 -0.27442667 1.0040001 152 78 163 255
0.28885999 -0.27360669 1.001 152 78 163 255
0.29076669 -0.27360669 1.001 152 78 163 255
0.29267335 -0.27360669 1.001 152 78 163 255
0.29458001 -0.27360669 1.001 152 78 163 255
0.29648668 -0.27360669 1.001 152 78 163 255
0.29839334 -0.27360669 1.001 152 78 163 255
0.3003 -0.27360669 1.001 152 78 163 255
0.30130094 -0.27278665 0.99800003 152 78 163 255
0.30320191 -0.27278665 0.99800003 152 78 163 255
0.27577141 -0.27577141 1.016 152 78 163 255
0.27688667 -0.27495715 1.013 152 78 163 255
0.27799046 -0.27414286 1.01 152 78 163 255
0.27991429 -0.27414286 1.01 152 78 163 255
0.28183809 -0.27414286 1.01 152 78 163 255
0.28291908 -0.2733286 1.0070001 152 78 163 255
0.28483719 -0.2733286 1.0070001 152 78 163 255
0.28590095 -0.27251428 1.0040001 152 78 163 255
0.28781334 -0.27251428 1.0040001 152 78 163 255
0.28972572 -0.27251428 1.0040001 152 78 163 255
0.29163814 -0.27251428 1.0040001 152 78 163 255
0.29355049 -0.27251428 1.0040001 152 78 163 255
0.29546288 -0.27251428 1.0040001 152 78 163 255
0.29737526 -0.27251428 1.0040001 152 78 163 255
0.29928762 -0.27251428 1.0040001 152 78 163 255
0.3003 -0.27169999 1.001 152 78 163 255
0.30220667 -0.27169999 1.001 152 78 163 255
0.30411333 -0.27169999 1.001 152 78 163 255
0.27577141 -0.2738362 1.016 152 78 163 255
0.27770668 -0.2738362 1.016 152 78 163 255
0.27881616 -0.27302763 1.013 152 78 163 255
0.28074571 -0.27302763 1.013 152 78 163 255
0.28267524 -0.27302763 1.013 152 78 163 255
0.28376192 -0.27221903 1.01 152 78 163 255
0.28483719 -0.2714105 1.0070001 152 78 163 255
0.28675526 -0.2714105 1.0070001 152 78 163 255
0.28781334 -0.27060193 1.0040001 152 78 163 255
0.28972572 -0.27060193 1.0040001 152 78 163 255
0.29163814 -0.27060193 1.0040001 152 78 163 255
0.29355049 -0.27060193 1.0040001 152 78 163 255
0.29546288 -0.27060193 1.0040001 152 78 163 255
0.29737526 -0.27060193 1.0040001 152 78 163 255
0.29928762 -0.27060193 1.0040001 152 78 163 255
0.3012 -0.27060193 1.0040001 152 78 163 255
0.30311242 -0.27060193 1.0040001 152 78 163 255
0.30684763 -0.27221903 1.01 152 78 163 255
0.27626193 -0.27430955 1.0250001 152 78 163 255
0.27658573 -0.27270383 1.0190001 152 78 163 255
0.27770668 -0.27190095 1.016 152 78 163 255
0.27964193 -0.27190095 1.016 152 78 163 255
0.28157714 -0.27190095 1.016 152 78 163 255
0.28267524 -0.27109811 1.013 152 78 163 255
0.28460476 -0.27109811 1.013 152 78 163 255
0.28568572 -0.27029523 1.01 152 78 163 255
0.28675526 -0.26949239 1.0070001 152 78 163 255
0.28867334 -0.26949239 1.0070001 152 78 163 255
0.28972572 -0.26868954 1.0040001 152 78 163 255
0.29163814 -0.26868954 1.0040001 152 78 163 255
0.29442763 -0.26949239 1.0070001 152 78 163 255
0.29634574 -0.26949239 1.0070001 152 78 163 255
0.29826385 -0.26949239 1.0070001 152 78 163 255
0.3010762 -0.27029523 1.01 152 78 163 255
0.303 -0.27029523 1.01 152 78 163 255
0.3049238 -0.27029523 1.01 152 78 163 255
0.30684763 -0.27029523 1.01 152 78 163 255
0.27511239 -0.27315429 1.028 152 78 163 255
0.27626193 -0.27235717 1.0250001 152 78 163 255
0.27740002 -0.27156001 1.0220001 152 78 163 255
0.27852666 -0.27076289 1.0190001 152 78 163 255
0.28046763 -0.27076289 1.0190001 152 78 163 255
0.28157714 -0.26996574 1.016 152 78 163 255
0.28351238 -0.26996574 1.016 152 78 163 255
0.28460476 -0.26916859 1.013 152 78 163 255
0.28568572 -0.26837143 1.01 152 78 163 255
0.28675526 -0.26757431 1.0070001 152 78 163 255
0.28867334 -0.26757431 1.0070001 152 78 163 255
0.28972572 -0.26677716 1.0040001 152 78 163 255
0.29163814 -0.26677716 1.0040001 152 78 163 255
0.29442763 -0.26757431 1.0070001 152 78 163 255
0.29634574 -0.26757431 1.0070001 152 78 163 255
0.29915237 -0.26837143 1.01 152 78 163 255
0.3010762 -0.26837143 1.01 152 78 163 255
0.3039 -0.26916859 1.013 152 78 163 255
0.30582952 -0.26916859 1.013 152 78 163 255
0.30775905 -0.26916859 1.013 152 78 163 255
0.27511239 -0.27119619 1.028 152 78 163 255
0.27626193 -0.27040479 1.0250001 152 78 163 255
0.27821431 -0.27040479 1.0250001 152 78 163 255
0.27934667 -0.26961336 1.0220001 152 78 163 255
0.28046763 -0.2688219 1.0190001 152 78 163 255
0.2824086 -0.2688219 1.0190001 152 78 163 255
0.28351238 -0.26803049 1.016 152 78 163 255
0.28460476 -0.26723906 1.013 152 78 163 255
0.28653428 -0.26723906 1.013 152 78 163 255
0.28760952 -0.2664476 1.01 152 78 163 255
0.28867334 -0.2656562 1.0070001 152 78 163 255
0.29059145 -0.2656562 1.0070001 152 78 163 255
0.29250956 -0.2656562 1.0070001 152 78 163 255
0.29442763 -0.2656562 1.0070001 152 78 163 255
0.29634574 -0.2656562 1.0070001 152 78 163 255
0.29915237 -0.2664476 1.01 152 78 163 255
0.3010762 -0.2664476 1.01 152 78 163 255
0.3039 -0.26723906 1.013 152 78 163 255
0.30582952 -0.26723906 1.013 152 78 163 255
0.27315429 -0.26923811 1.028 152 78 163 255
0.27511239 -0.26923811 1.028 152 78 163 255
0.27626193 -0.26845241 1.0250001 152 78 163 255
0.27821431 -0.26845241 1.0250001 152 78 163 255
0.27934667 -0.26766667 1.0220001 152 78 163 255
0.28129336 -0.26766667 1.0220001 152 78 163 255
0.2824086 -0.26688096 1.0190001 152 78 163 255
0.28434953 -0.26688096 1.0190001 152 78 163 255
0.28544763 -0.26609522 1.016 152 78 163 255
0.28653428 -0.26530954 1.013 152 78 163 255
0.2884638 -0.26530954 1.013 152 78 163 255
0.28953335 -0.2645238 1.01 152 78 163 255
0.29059145 -0.2637381 1.0070001 152 78 163 255
0.29250956 -0.2637381 1.0070001 152 78 163 255
0.29530478 -0.2645238 1.01 152 78 163 255
0.29722857 -0.2645238 1.01 152 78 163 255
0.29915237 -0.2645238 1.01 152 78 163 255
0.30197048 -0.26530954 1.013 152 78 163 255
0.3039 -0.26530954 1.013 152 78 163 255
0.27315429 -0.26728001 1.028 152 78 163 255
0.27511239 -0.26728001 1.028 152 78 163 255
0.27707049 -0.26728001 1.028 152 78 163 255
0.27821431 -0.2665 1.0250001 152 78 163 255
0.28016669 -0.2665 1.0250001 152 78 163 255
0.28211907 -0.2665 1.0250001 152 78 163 255
0.28323999 -0.26572001 1.0220001 152 78 163 255
0.28434953 -0.26493999 1.0190001 152 78 163 255
0.28544763 -0.26416001 1.016 152 78 163 255
0.28738287 -0.26416001 1.016 152 78 163 255
0.2884638 -0.26338002 1.013 152 78 163 255
0.29039332 -0.26338002 1.013 152 78 163 255
0.29145715 -0.2626 1.01 152 78 163 255
0.29338095 -0.2626 1.01 152 78 163 255
0.29530478 -0.2626 1.01 152 78 163 255
0.29722857 -0.2626 1.01 152 78 163 255
0.30004096 -0.26338002 1.013 152 78 163 255
0.30197048 -0.26338002 1.013 152 78 163 255
0.3039 -0.26338002 1.013 152 78 163 255
0.27511239 -0.26532191 1.028 152 78 163 255
0.27707049 -0.26532191 1.028 152 78 163 255
0.27902856 -0.26532191 1.028 152 78 163 255
0.28016669 -0.26454765 1.0250001 152 78 163 255
0.28211907 -0.26454765 1.0250001 152 78 163 255
0.28323999 -0.26377332 1.0220001 152 78 163 255
0.28518668 -0.26377332 1.0220001 152 78 163 255
0.2862905 -0.26299906 1.0190001 152 78 163 255
0.28738287 -0.26222476 1.016 152 78 163 255
0.28931808 -0.26222476 1.016 152 78 163 255
0.29125333 -0.26222476 1.016 152 78 163 255
0.29232284 -0.26145047 1.013 152 78 163 255
0.29425237 -0.26145047 1.013 152 78 163 255
0.29705906 -0.26222476 1.016 152 78 163 255
0.29811141 -0.26145047 1.013 152 78 163 255
0.30004096 -0.26145047 1.013 152 78 163 255
0.30197048 -0.26145047 1.013 152 78 163 255
0.27511239 -0.26336381 1.028 152 78 163 255
0.27707049 -0.26336381 1.028 152 78 163 255
0.27902856 -0.26336381 1.028 152 78 163 255
0.28016669 -0.26259527 1.0250001 152 78 163 255
0.28211907 -0.26259527 1.0250001 152 78 163 255
0.28323999 -0.26182669 1.0220001 152 78 163 255
0.28518668 -0.26182669 1.0220001 152 78 163 255
0.28713334 -0.26182669 1.0220001 152 78 163 255
0.28823143 -0.26105812 1.0190001 152 78 163 255
0.28931808 -0.26028955 1.016 152 78 163 255
0.29125333 -0.26028955 1.016 152 78 163 255
0.29232284 -0.25952095 1.013 152 78 163 255
0.29425237 -0.25952095 1.013 152 78 163 255
0.29705906 -0.26028955 1.016 152 78 163 255
0.29811141 -0.25952095 1.013 152 78 163 255
0.30004096 -0.25952095 1.013 152 78 163 255
0.30197048 -0.25952095 1.013 152 78 163 255
0.27591524 -0.26216859 1.031 152 78 163 255
0.27707049 -0.26140574 1.028 152 78 163 255
0.27902856 -0.26140574 1.028 152 78 163 255
0.28098667 -0.26140574 1.028 152 78 163 255
0.28211907 -0.26064289 1.0250001 152 78 163 255
0.28407145 -0.26064289 1.0250001 152 78 163 255
0.28602386 -0.26064289 1.0250001 152 78 163 255
0.28713334 -0.25988001 1.0220001 152 78 163 255
0.28823143 -0.25911716 1.0190001 152 78 163 255
0.2901724 -0.25911716 1.0190001 152 78 163 255
0.29125333 -0.25835428 1.016 152 78 163 255
0.2931886 -0.25835428 1.016 152 78 163 255
0.29512382 -0.25835428 1.016 152 78 163 255
0.29705906 -0.25835428 1.016 152 78 163 255
0.29899427 -0.25835428 1.016 152 78 163 255
0.30092955 -0.25835428 1.016 152 78 163 255
0.30286476 -0.25835428 1.016 152 78 163 255
0.27591524 -0.26020476 1.031 152 78 163 255
0.27707049 -0.25944763 1.028 152 78 163 255
0.27902856 -0.25944763 1.028 152 78 163 255
0.28098667 -0.25944763 1.028 152 78 163 255
0.28294477 -0.25944763 1.028 152 78 163 255
0.28407145 -0.25869051 1.0250001 152 78 163 255
0.28602386 -0.25869051 1.0250001 152 78 163 255
0.28797621 -0.25869051 1.0250001 152 78 163 255
0.28908002 -0.25793335 1.0220001 152 78 163 255
0.29102668 -0.25793335 1.0220001 152 78 163 255
0.29211336 -0.25717619 1.0190001 152 78 163 255
0.2931886 -0.25641906 1.016 152 78 163 255
0.29512382 -0.25641906 1.016 152 78 163 255
0.29705906 -0.25641906 1.016 152 78 163 255
0.29899427 -0.25641906 1.016 152 78 163 255
0.30092955 -0.25641906 1.016 152 78 163 255
0.30286476 -0.25641906 1.016 152 78 163 255
0.27778861 -0.2599943 1.0380001 152 78 163 255
0.27868763 -0.2589924 1.034 152 78 163 255
0.27984285 -0.25824097 1.031 152 78 163 255
0.28098667 -0.25748953 1.028 152 78 163 255
0.28294477 -0.25748953 1.028 152 78 163 255
0.28490287 -0.25748953 1.028 152 78 163 255
0.28602386 -0.2567381 1.0250001 152 78 163 255
0.28797621 -0.2567381 1.0250001 152 78 163 255
0.28992859 -0.2567381 1.0250001 152 78 163 255
0.291881 -0.2567381 1.0250001 152 78 163 255
0.29297334 -0.25598666 1.0220001 152 78 163 255
0.2940543 -0.25523525 1.0190001 152 78 163 255
0.29599524 -0.25523525 1.0190001 152 78 163 255
0.2979362 -0.25523525 1.0190001 152 78 163 255
0.29987714 -0.25523525 1.0190001 152 78 163 255
0.30181813 -0.25523525 1.0190001 152 78 163 255
0.27778861 -0.25801718 1.0380001 152 78 163 255
0.27976573 -0.25801718 1.0380001 152 78 163 255
0.27984285 -0.25627714 1.031 152 78 163 255
0.28180668 -0.25627714 1.031 152 78 163 255
0.2837705 -0.25627714 1.031 152 78 163 255
0.28573427 -0.25627714 1.031 152 78 163 255
0.28686097 -0.25553143 1.028 152 78 163 255
0.28881904 -0.25553143 1.028 152 78 163 255
0.29077715 -0.25553143 1.028 152 78 163 255
0.29273525 -0.25553143 1.028 152 78 163 255
0.29469335 -0.25553143 1.028 152 78 163 255
0.29578575 -0.25478575 1.0250001 152 78 163 255
0.29773813 -0.25478575 1.0250001 152 78 163 255
0.30056763 -0.25553143 1.028 152 78 163 255
0.30252573 -0.25553143 1.028 152 78 163 255
0.30537236 -0.25627714 1.031 152 78 163 255
0.28057429 -0.25678 1.041 152 78 163 255
0.28065714 -0.25505334 1.034 152 78 163 255
0.28262669 -0.25505334 1.034 152 78 163 255
0.2837705 -0.25431332 1.031 152 78 163 255
0.28573427 -0.25431332 1.031 152 78 163 255
0.28769809 -0.25431332 1.031 152 78 163 255
0.28881904 -0.25357336 1.028 152 78 163 255
0.29077715 -0.25357336 1.028 152 78 163 255
0.29273525 -0.25357336 1.028 152 78 163 255
0.29555333 -0.25431332 1.031 152 78 163 255
0.29665142 -0.25357336 1.028 152 78 163 255
0.29860952 -0.25357336 1.028 152 78 163 255
0.30056763 -0.25357336 1.028 152 78 163 255
0.30252573 -0.25357336 1.028 152 78 163 255
0.30537236 -0.25431332 1.031 152 78 163 255
0.28207049 -0.25797904 1.054 152 78 163 255
0.28057429 -0.25479713 1.041 152 78 163 255
0.28174287 -0.25406286 1.0380001 152 78 163 255
0.28372005 -0.25406286 1.0380001 152 78 163 255
0.2845962 -0.25308383 1.034 152 78 163 255
0.28656572 -0.25308383 1.034 152 78 163 255
0.28853524 -0.25308383 1.034 152 78 163 255
0.29050475 -0.25308383 1.034 152 78 163 255
0.29162571 -0.25234953 1.031 152 78 163 255
0.29358953 -0.25234953 1.031 152 78 163 255
0.29641333 -0.25308383 1.034 152 78 163 255
0.29838285 -0.25308383 1.034 152 78 163 255
0.30035239 -0.25308383 1.034 152 78 163 255
0.30144477 -0.25234953 1.031 152 78 163 255
0.30340856 -0.25234953 1.031 152 78 163 255
0.30626094 -0.25308383 1.034 152 78 163 255
0.28207049 -0.25597143 1.054 152 78 163 255
0.28138286 -0.25354287 1.044 152 78 163 255
0.28174287 -0.25208575 1.0380001 152 78 163 255
0.28372005 -0.25208575 1.0380001 152 78 163 255
0.28569716 -0.25208575 1.0380001 152 78 163 255
0.28767434 -0.25208575 1.0380001 152 78 163 255
0.28853524 -0.25111431 1.034 152 78 163 255
0.29050475 -0.25111431 1.034 152 78 163 255
0.2924743 -0.25111431 1.034 152 78 163 255
0.29444382 -0.25111431 1.034 152 78 163 255
0.29641333 -0.25111431 1.034 152 78 163 255
0.29953718 -0.25208575 1.0380001 152 78 163 255
0.3015143 -0.25208575 1.0380001 152 78 163 255
0.30349147 -0.25208575 1.0380001 152 78 163 255
0.30635142 -0.25281429 1.041 152 78 163 255
0.30922288 -0.25354287 1.044 152 78 163 255
0.28219146 -0.25227717 1.0470001 152 78 163 255
0.28255713 -0.25083145 1.041 152 78 163 255
0.28454 -0.25083145 1.041 152 78 163 255
0.28652287 -0.25083145 1.041 152 78 163 255
0.28767434 -0.25010857 1.0380001 152 78 163 255
0.28965145 -0.25010857 1.0380001 152 78 163 255
0.2916286 -0.25010857 1.0380001 152 78 163 255
0.29360574 -0.25010857 1.0380001 152 78 163 255
0.29558289 -0.25010857 1.0380001 152 78 163 255
0.29756001 -0.25010857 1.0380001 152 78 163 255
0.29953718 -0.25010857 1.0380001 152 78 163 255
0.3015143 -0.25010857 1.0380001 152 78 163 255
0.30436859 -0.25083145 1.041 152 78 163 255
0.30723429 -0.25155431 1.044 152 78 163 255
0.31100002 -0.25300002 1.0500001 152 78 163 255
0.28300002 -0.25100002 1.0500001 152 78 163 255
0.28337145 -0.24956572 1.044 152 78 163 255
0.28536001 -0.24956572 1.044 152 78 163 255
0.28652287 -0.24884859 1.041 152 78 163 255
0.28767434 -0.24813145 1.0380001 152 78 163 255
0.28965145 -0.24813145 1.0380001 152 78 163 255
0.2916286 -0.24813145 1.0380001 152 78 163 255
0.29360574 -0.24813145 1.0380001 152 78 163 255
0.29558289 -0.24813145 1.0380001 152 78 163 255
0.29756001 -0.24813145 1.0380001 152 78 163 255
0.30040285 -0.24884859 1.041 152 78 163 255
0.30238572 -0.24884859 1.041 152 78 163 255
0.30436859 -0.24884859 1.041 152 78 163 255
0.30811715 -0.25028288 1.0470001 152 78 163 255
0.28608572 -0.24994858 1.054 152 78 163 255
0.28618002 -0.24828857 1.0470001 152 78 163 255
0.28734857 -0.24757713 1.044 152 78 163 255
0.2885057 -0.24686572 1.041 152 78 163 255
0.29048857 -0.24686572 1.041 152 78 163 255
0.29247144 -0.24686572 1.041 152 78 163 255
0.29445428 -0.24686572 1.041 152 78 163 255
0.29643714 -0.24686572 1.041 152 78 163 255
0.29842001 -0.24686572 1.041 152 78 163 255
0.30040285 -0.24686572 1.041 152 78 163 255
0.30325714 -0.24757713 1.044 152 78 163 255
0.3052457 -0.24757713 1.044 152 78 163 255
0.2881743 -0.24629429 1.0470001 152 78 163 255
0.28933716 -0.24558859 1.044 152 78 163 255
0.29132572 -0.24558859 1.044 152 78 163 255
0.29247144 -0.24488287 1.041 152 78 163 255
0.29445428 -0.24488287 1.041 152 78 163 255
0.29643714 -0.24488287 1.041 152 78 163 255
0.29842001 -0.24488287 1.041 152 78 163 255
0.30126858 -0.24558859 1.044 152 78 163 255
0.30325714 -0.24558859 1.044 152 78 163 255
0.30700004 -0.24700001 1.0500001 152 78 163 255
0.2881743 -0.24430001 1.0470001 152 78 163 255
0.29016858 -0.24430001 1.0470001 152 78 163 255
0.29132572 -0.24360001 1.044 152 78 163 255
0.29331431 -0.24360001 1.044 152 78 163 255
0.29530287 -0.24360001 1.044 152 78 163 255
0.29729143 -0.24360001 1.044 152 78 163 255
0.29928002 -0.24360001 1.044 152 78 163 255
0.30213431 -0.24430001 1.0470001 152 78 163 255
0.30500004 -0.24500002 1.0500001 152 78 163 255
0.29100001 -0.24300002 1.0500001 152 78 163 255
0.29216287 -0.24230571 1.0470001 152 78 163 255
0.29415715 -0.24230571 1.0470001 152 78 163 255
0.29615143 -0.24230571 1.0470001 152 78 163 255
0.29814571 -0.24230571 1.0470001 152 78 163 255
0.30013999 -0.24230571 1.0470001 152 78 163 255
0 0 0 1 0 0 0 1 0 0 0 1 0 0 0 0 0 526 1 0 0