ply
format ascii 1.0
comment PCL generated
element vertex 1225
property float x
property float y
property float z
element camera 1
property float view_px
property float view_py
property float view_pz
property float x_axisx
property float x_axisy
property float x_axisz
property float y_axisx
property float y_axisy
property float y_axisz
property float z_axisx
property float z_axisy
property float z_axisz
property float focal
property float scalex
property float scaley
property float centerx
property float centery
property int viewportx
property int viewporty
property float k1
property float k2
end_header
0.21700478 -0.1336143 0.99500006
0.21824001 -0.13321143 0.99200004
0.22012953 -0.13321143 0.99200004
0.22201906 -0.13321143 0.99200004
0.22390857 -0.13321143 0.99200004
0.2257981 -0.13321143 0.99200004
0.22768763 -0.13321143 0.99200004
0.22957715 -0.13321143 0.99200004
0.21446095 -0.13132191 0.99200004
0.21635048 -0.13132191 0.99200004
0.21824001 -0.13132191 0.99200004
0.22012953 -0.13132191 0.99200004
0.22134763 -0.13092476 0.98900002
0.22323143 -0.13092476 0.98900002
0.22511524 -0.13092476 0.98900002
0.22768763 -0.13132191 0.99200004
0.22957715 -0.13132191 0.99200004
0.23146667 -0.13132191 0.99200004
0.23335621 -0.13132191 0.99200004
0.23524572 -0.13132191 0.99200004
0.23713525 -0.13132191 0.99200004
0.21068667 -0.13060667 1.001
0.2106819 -0.12943238 0.99200004
0.21257144 -0.12943238 0.99200004
0.21381238 -0.12904094 0.98900002
0.21569619 -0.12904094 0.98900002
0.21757999 -0.12904094 0.98900002
0.21946383 -0.12904094 0.98900002
0.22134763 -0.12904094 0.98900002
0.22323143 -0.12904094 0.98900002
0.22511524 -0.12904094 0.98900002
0.22699904 -0.12904094 0.98900002
0.22888286 -0.12904094 0.98900002
0.23030001 -0.12878001 0.98700005
0.23218001 -0.12878001 0.98700005
0.23406002 -0.12878001 0.98700005
0.23594001 -0.12878001 0.98700005
0.23830192 -0.12904094 0.98900002
0.24018572 -0.12904094 0.98900002
0.20815429 -0.1283143 0.99800003
0.20879239 -0.12754287 0.99200004
0.21004477 -0.12715714 0.98900002
0.21192858 -0.12715714 0.98900002
0.21381238 -0.12715714 0.98900002
0.21569619 -0.12715714 0.98900002
0.21757999 -0.12715714 0.98900002
0.21946383 -0.12715714 0.98900002
0.2209 -0.1269 0.98700005
0.22278 -0.1269 0.98700005
0.22466001 -0.1269 0.98700005
0.22654 -0.1269 0.98700005
0.22842002 -0.1269 0.98700005
0.23030001 -0.1269 0.98700005
0.23218001 -0.1269 0.98700005
0.23334858 -0.12651429 0.98400003
0.23522286 -0.12651429 0.98400003
0.23782001 -0.1269 0.98700005
0.2397 -0.1269 0.98700005
0.24280383 -0.12754287 0.99200004
0.20815429 -0.12641335 0.99800003
0.20879239 -0.12565334 0.99200004
0.21004477 -0.12527333 0.98900002
0.21192858 -0.12527333 0.98900002
0.21381238 -0.12527333 0.98900002
0.21569619 -0.12527333 0.98900002
0.21757999 -0.12527333 0.98900002
0.21946383 -0.12527333 0.98900002
0.2209 -0.12502001 0.98700005
0.22278 -0.12502001 0.98700005
0.22466001 -0.12502001 0.98700005
0.22654 -0.12502001 0.98700005
0.22842002 -0.12502001 0.98700005
0.23030001 -0.12502001 0.98700005
0.23147428 -0.12464001 0.98400003
0.23334858 -0.12464001 0.98400003
0.23522286 -0.12464001 0.98400003
0.23709714 -0.12464001 0.98400003
0.23897144 -0.12464001 0.98400003
0.24206953 -0.12527333 0.98900002
0.24543335 -0.12603334 0.99500006
0.20690288 -0.12376382 0.99200004
0.20816095 -0.12338953 0.98900002
0.20962001 -0.12314001 0.98700005
0.2115 -0.12314001 0.98700005
0.21338001 -0.12314001 0.98700005
0.21526001 -0.12314001 0.98700005
0.21714 -0.12314001 0.98700005
0.21902001 -0.12314001 0.98700005
0.2209 -0.12314001 0.98700005
0.22278 -0.12314001 0.98700005
0.22466001 -0.12314001 0.98700005
0.22654 -0.12314001 0.98700005
0.22772571 -0.12276572 0.98400003
0.2296 -0.12276572 0.98400003
0.23147428 -0.12276572 0.98400003
0.23334858 -0.12276572 0.98400003
0.23522286 -0.12276572 0.98400003
0.23709714 -0.12276572 0.98400003
0.23897144 -0.12276572 0.98400003
0.24084571 -0.12276572 0.98400003
0.24543335 -0.12413809 0.99500006
0.24807428 -0.12451239 0.99800003
0.20690288 -0.12187429 0.99200004
0.20774001 -0.12126 0.98700005
0.20898286 -0.12089143 0.98400003
0.21085715 -0.12089143 0.98400003
0.21273144 -0.12089143 0.98400003
0.21460572 -0.12089143 0.98400003
0.21648 -0.12089143 0.98400003
0.21835428 -0.12089143 0.98400003
0.22022857 -0.12089143 0.98400003
0.22210287 -0.12089143 0.98400003
0.22397715 -0.12089143 0.98400003
0.22585143 -0.12089143 0.98400003
0.22703144 -0.12052286 0.98100007
0.22890002 -0.12052286 0.98100007
0.23076859 -0.12052286 0.98100007
0.23263715 -0.12052286 0.98100007
0.23450573 -0.12052286 0.98100007
0.2363743 -0.12052286 0.98100007
0.23824286 -0.12052286 0.98100007
0.24011144 -0.12052286 0.98100007
0.24469334 -0.12187429 0.99200004
0.20627715 -0.11962191 0.98900002
0.20710857 -0.11901715 0.98400003
0.20898286 -0.11901715 0.98400003
0.2102143 -0.11865429 0.98100007
0.21208286 -0.11865429 0.98100007
0.21395144 -0.11865429 0.98100007
0.21582 -0.11865429 0.98100007
0.21768858 -0.11865429 0.98100007
0.22022857 -0.11901715 0.98400003
0.22142573 -0.11865429 0.98100007
0.2232943 -0.11865429 0.98100007
0.22516288 -0.11865429 0.98100007
0.22703144 -0.11865429 0.98100007
0.22890002 -0.11865429 0.98100007
0.23076859 -0.11865429 0.98100007
0.23263715 -0.11865429 0.98100007
0.23450573 -0.11865429 0.98100007
0.2363743 -0.11865429 0.98100007
0.23824286 -0.11865429 0.98100007
0.24011144 -0.11865429 0.98100007
0.24198 -0.11865429 0.98100007
0.20586002 -0.11750001 0.98700005
0.20710857 -0.11714286 0.98400003
0.20834573 -0.11678572 0.98100007
0.2102143 -0.11678572 0.98100007
0.21208286 -0.11678572 0.98100007
0.21329714 -0.11642858 0.97800004
0.21516001 -0.11642858 0.97800004
0.21768858 -0.11678572 0.98100007
0.21955715 -0.11678572 0.98100007
0.22142573 -0.11678572 0.98100007
0.2232943 -0.11678572 0.98100007
0.22516288 -0.11678572 0.98100007
0.22703144 -0.11678572 0.98100007
0.22890002 -0.11678572 0.98100007
0.23076859 -0.11678572 0.98100007
0.23192573 -0.11642858 0.97800004
0.23378858 -0.11642858 0.97800004
0.23565143 -0.11642858 0.97800004
0.2375143 -0.11642858 0.97800004
0.24011144 -0.11678572 0.98100007
0.24198 -0.11678572 0.98100007
0.20586002 -0.11562001 0.98700005
0.20647715 -0.11491715 0.98100007
0.20834573 -0.11491715 0.98100007
0.20957144 -0.11456572 0.97800004
0.21143429 -0.11456572 0.97800004
0.21329714 -0.11456572 0.97800004
0.21516001 -0.11456572 0.97800004
0.21702287 -0.11456572 0.97800004
0.21955715 -0.11491715 0.98100007
0.22142573 -0.11491715 0.98100007
0.2232943 -0.11491715 0.98100007
0.22516288 -0.11491715 0.98100007
0.22703144 -0.11491715 0.98100007
0.22820002 -0.11456572 0.97800004
0.23006286 -0.11456572 0.97800004
0.23192573 -0.11456572 0.97800004
0.23378858 -0.11456572 0.97800004
0.23565143 -0.11456572 0.97800004
0.2375143 -0.11456572 0.97800004
0.23937714 -0.11456572 0.97800004
0.24198 -0.11491715 0.98100007
0.20586002 -0.11374 0.98700005
0.20584573 -0.11270286 0.97800004
0.20770858 -0.11270286 0.97800004
0.20957144 -0.11270286 0.97800004
0.21143429 -0.11270286 0.97800004
0.21264286 -0.11235715 0.97500002
0.21450001 -0.11235715 0.97500002
0.21702287 -0.11270286 0.97800004
0.21888573 -0.11270286 0.97800004
0.22074857 -0.11270286 0.97800004
0.22261143 -0.11270286 0.97800004
0.2244743 -0.11270286 0.97800004
0.22633715 -0.11270286 0.97800004
0.22820002 -0.11270286 0.97800004
0.23006286 -0.11270286 0.97800004
0.23192573 -0.11270286 0.97800004
0.23378858 -0.11270286 0.97800004
0.23565143 -0.11270286 0.97800004
0.2375143 -0.11270286 0.97800004
0.23937714 -0.11270286 0.97800004
0.24124001 -0.11270286 0.97800004
0.24384858 -0.11304858 0.98100007
0.20627715 -0.11208667 0.98900002
0.20584573 -0.11084 0.97800004
0.20770858 -0.11084 0.97800004
0.20892857 -0.1105 0.97500002
0.21078572 -0.1105 0.97500002
0.21264286 -0.1105 0.97500002
0.21450001 -0.1105 0.97500002
0.21635714 -0.1105 0.97500002
0.21888573 -0.11084 0.97800004
0.22074857 -0.11084 0.97800004
0.22261143 -0.11084 0.97800004
0.2244743 -0.11084 0.97800004
0.22633715 -0.11084 0.97800004
0.22820002 -0.11084 0.97800004
0.23006286 -0.11084 0.97800004
0.23121428 -0.1105 0.97500002
0.23307143 -0.1105 0.97500002
0.23492858 -0.1105 0.97500002
0.23678571 -0.1105 0.97500002
0.23864287 -0.1105 0.97500002
0.24124001 -0.11084 0.97800004
0.24384858 -0.11118001 0.98100007
0.20627715 -0.11020286 0.98900002
0.20584573 -0.10897715 0.97800004
0.20770858 -0.10897715 0.97800004
0.20892857 -0.10864286 0.97500002
0.21078572 -0.10864286 0.97500002
0.21264286 -0.10864286 0.97500002
0.21450001 -0.10864286 0.97500002
0.21635714 -0.10864286 0.97500002
0.21821429 -0.10864286 0.97500002
0.22007143 -0.10864286 0.97500002
0.22192858 -0.10864286 0.97500002
0.22378571 -0.10864286 0.97500002
0.22564286 -0.10864286 0.97500002
0.22820002 -0.10897715 0.97800004
0.23006286 -0.10897715 0.97800004
0.23121428 -0.10864286 0.97500002
0.23307143 -0.10864286 0.97500002
0.23444667 -0.10842 0.97300005
0.23630001 -0.10842 0.97300005
0.23815335 -0.10842 0.97300005
0.2405 -0.10864286 0.97500002
0.24459429 -0.10964572 0.98400003
0.20627715 -0.10831904 0.98900002
0.20584573 -0.10711429 0.97800004
0.20770858 -0.10711429 0.97800004
0.20892857 -0.10678571 0.97500002
0.21078572 -0.10678571 0.97500002
0.21220668 -0.10656667 0.97300005
0.21406001 -0.10656667 0.97300005
0.21635714 -0.10678571 0.97500002
0.21821429 -0.10678571 0.97500002
0.22007143 -0.10678571 0.97500002
0.22192858 -0.10678571 0.97500002
0.22378571 -0.10678571 0.97500002
0.22564286 -0.10678571 0.97500002
0.22749999 -0.10678571 0.97500002
0.22935715 -0.10678571 0.97500002
0.23074001 -0.10656667 0.97300005
0.23259334 -0.10656667 0.97300005
0.23444667 -0.10656667 0.97300005
0.23557143 -0.1062381 0.97000003
0.23741905 -0.1062381 0.97000003
0.2405 -0.10678571 0.97500002
0.24384858 -0.10744286 0.98100007
0.20398286 -0.10525143 0.97800004
0.20584573 -0.10525143 0.97800004
0.20707142 -0.10492858 0.97500002
0.20850001 -0.10471334 0.97300005
0.21035334 -0.10471334 0.97300005
0.21220668 -0.10471334 0.97300005
0.21406001 -0.10471334 0.97300005
0.21591334 -0.10471334 0.97300005
0.21776667 -0.10471334 0.97300005
0.21962 -0.10471334 0.97300005
0.22147334 -0.10471334 0.97300005
0.22332667 -0.10471334 0.97300005
0.22518001 -0.10471334 0.97300005
0.22703335 -0.10471334 0.97300005
0.22888668 -0.10471334 0.97300005
0.23074001 -0.10471334 0.97300005
0.23187619 -0.10439047 0.97000003
0.2337238 -0.10439047 0.97000003
0.23557143 -0.10439047 0.97000003
0.23741905 -0.10439047 0.97000003
0.24000669 -0.10471334 0.97300005
0.24310286 -0.10525143 0.97800004
0.20398286 -0.10338858 0.97800004
0.20584573 -0.10338858 0.97800004
0.20707142 -0.10307144 0.97500002
0.20850001 -0.10286 0.97300005
0.20970476 -0.10254286 0.97000003
0.21155238 -0.10254286 0.97000003
0.21340001 -0.10254286 0.97000003
0.21524763 -0.10254286 0.97000003
0.21709524 -0.10254286 0.97000003
0.21894285 -0.10254286 0.97000003
0.22147334 -0.10286 0.97300005
0.22332667 -0.10286 0.97300005
0.22518001 -0.10286 0.97300005
0.22703335 -0.10286 0.97300005
0.22888668 -0.10286 0.97300005
0.23074001 -0.10286 0.97300005
0.23187619 -0.10254286 0.97000003
0.2337238 -0.10254286 0.97000003
0.23557143 -0.10254286 0.97000003
0.23741905 -0.10254286 0.97000003
0.24000669 -0.10286 0.97300005
0.24310286 -0.10338858 0.97800004
0.24496573 -0.10338858 0.97800004
0.20521429 -0.10121429 0.97500002
0.20664667 -0.10100667 0.97300005
0.20785715 -0.10069524 0.97000003
0.20970476 -0.10069524 0.97000003
0.21155238 -0.10069524 0.97000003
0.21340001 -0.10069524 0.97000003
0.21524763 -0.10069524 0.97000003
0.21709524 -0.10069524 0.97000003
0.21894285 -0.10069524 0.97000003
0.22079048 -0.10069524 0.97000003
0.2226381 -0.10069524 0.97000003
0.22448573 -0.10069524 0.97000003
0.22633334 -0.10069524 0.97000003
0.22818096 -0.10069524 0.97000003
0.23074001 -0.10100667 0.97300005
0.23187619 -0.10069524 0.97000003
0.2337238 -0.10069524 0.97000003
0.23557143 -0.10069524 0.97000003
0.23741905 -0.10069524 0.97000003
0.24000669 -0.10100667 0.97300005
0.24235715 -0.10121429 0.97500002
0.24496573 -0.10152572 0.97800004
0.20521429 -0.099357143 0.97500002
0.20664667 -0.09915334 0.97300005
0.20785715 -0.09884762 0.97000003
0.20970476 -0.09884762 0.97000003
0.21155238 -0.09884762 0.97000003
0.21340001 -0.09884762 0.97000003
0.21524763 -0.09884762 0.97000003
0.21709524 -0.09884762 0.97000003
0.21894285 -0.09884762 0.97000003
0.22079048 -0.09884762 0.97000003
0.2226381 -0.09884762 0.97000003
0.22448573 -0.09884762 0.97000003
0.22633334 -0.09884762 0.97000003
0.22818096 -0.09884762 0.97000003
0.23002858 -0.09884762 0.97000003
0.23187619 -0.09884762 0.97000003
0.2337238 -0.09884762 0.97000003
0.23557143 -0.09884762 0.97000003
0.23741905 -0.09884762 0.97000003
0.24000669 -0.09915334 0.97300005
0.24235715 -0.099357143 0.97500002
0.2442143 -0.099357143 0.97500002
0.20523429 -0.098399997 0.98400003
0.20521429 -0.097499996 0.97500002
0.20664667 -0.097300008 0.97300005
0.20785715 -0.097000003 0.97000003
0.20970476 -0.097000003 0.97000003
0.21155238 -0.097000003 0.97000003
0.21340001 -0.097000003 0.97000003
0.21458192 -0.096700005 0.96700007
0.21642382 -0.096700005 0.96700007
0.21826573 -0.096700005 0.96700007
0.22079048 -0.097000003 0.97000003
0.2226381 -0.097000003 0.97000003
0.22448573 -0.097000003 0.97000003
0.22633334 -0.097000003 0.97000003
0.22818096 -0.097000003 0.97000003
0.23002858 -0.097000003 0.97000003
0.23187619 -0.097000003 0.97000003
0.2337238 -0.097000003 0.97000003
0.23557143 -0.097000003 0.97000003
0.23741905 -0.097000003 0.97000003
0.23926668 -0.097000003 0.97000003
0.24235715 -0.097499996 0.97500002
0.2442143 -0.097499996 0.97500002
0.24758574 -0.098100007 0.98100007
0.20521429 -0.095642857 0.97500002
0.20664667 -0.095446669 0.97300005
0.20785715 -0.095152386 0.97000003
0.2090562 -0.094858103 0.96700007
0.2108981 -0.094858103 0.96700007
0.21274 -0.094858103 0.96700007
0.21458192 -0.094858103 0.96700007
0.21642382 -0.094858103 0.96700007
0.21826573 -0.094858103 0.96700007
0.22010764 -0.094858103 0.96700007
0.22194953 -0.094858103 0.96700007
0.22379145 -0.094858103 0.96700007
0.22563335 -0.094858103 0.96700007
0.22747526 -0.094858103 0.96700007
0.22931716 -0.094858103 0.96700007
0.23115906 -0.094858103 0.96700007
0.23300096 -0.094858103 0.96700007
0.23484288 -0.094858103 0.96700007
0.23741905 -0.095152386 0.97000003
0.23926668 -0.095152386 0.97000003
0.24235715 -0.095642857 0.97500002
0.2442143 -0.095642857 0.97500002
0.24682859 -0.09593714 0.97800004
0.20584573 -0.094074294 0.97800004
0.20600954 -0.093304761 0.97000003
0.20785715 -0.093304761 0.97000003
0.2090562 -0.0930162 0.96700007
0.2108981 -0.0930162 0.96700007
0.21274 -0.0930162 0.96700007
0.21458192 -0.0930162 0.96700007
0.21642382 -0.0930162 0.96700007
0.21826573 -0.0930162 0.96700007
0.22010764 -0.0930162 0.96700007
0.22194953 -0.0930162 0.96700007
0.22379145 -0.0930162 0.96700007
0.22563335 -0.0930162 0.96700007
0.22747526 -0.0930162 0.96700007
0.22931716 -0.0930162 0.96700007
0.23115906 -0.0930162 0.96700007
0.23300096 -0.0930162 0.96700007
0.23484288 -0.0930162 0.96700007
0.23668477 -0.0930162 0.96700007
0.23852669 -0.0930162 0.96700007
0.24186002 -0.093593337 0.97300005
0.2442143 -0.093785718 0.97500002
0.24682859 -0.094074294 0.97800004
0.20398286 -0.092211433 0.97800004
0.20521429 -0.091928571 0.97500002
0.20600954 -0.091457151 0.97000003
0.2072143 -0.091174297 0.96700007
0.20840763 -0.090891428 0.96400005
0.21024382 -0.090891428 0.96400005
0.21274 -0.091174297 0.96700007
0.21458192 -0.091174297 0.96700007
0.21642382 -0.091174297 0.96700007
0.21826573 -0.091174297 0.96700007
0.22010764 -0.091174297 0.96700007
0.22194953 -0.091174297 0.96700007
0.22379145 -0.091174297 0.96700007
0.22493334 -0.090891428 0.96400005
0.22676954 -0.090891428 0.96400005
0.22860572 -0.090891428 0.96400005
0.23044191 -0.090891428 0.96400005
0.23227811 -0.090891428 0.96400005
0.23411429 -0.090891428 0.96400005
0.23595048 -0.090891428 0.96400005
0.23852669 -0.091174297 0.96700007
0.24111429 -0.091457151 0.97000003
0.24371335 -0.091740005 0.97300005
0.24682859 -0.092211433 0.97800004
0.20335715 -0.090071432 0.97500002
0.20416191 -0.089609526 0.97000003
0.20473525 -0.08905524 0.96400005
0.20614287 -0.088870488 0.96200007
0.20797525 -0.088870488 0.96200007
0.20980763 -0.088870488 0.96200007
0.21208 -0.08905524 0.96400005
0.2139162 -0.08905524 0.96400005
0.21575239 -0.08905524 0.96400005
0.21758859 -0.08905524 0.96400005
0.21942477 -0.08905524 0.96400005
0.22126095 -0.08905524 0.96400005
0.2226343 -0.088870488 0.96200007
0.22446668 -0.088870488 0.96200007
0.22629906 -0.088870488 0.96200007
0.22813144 -0.088870488 0.96200007
0.22996382 -0.088870488 0.96200007
0.23179621 -0.088870488 0.96200007
0.23362859 -0.088870488 0.96200007
0.23546097 -0.088870488 0.96200007
0.23729335 -0.088870488 0.96200007
0.24036859 -0.089332387 0.96700007
0.2429619 -0.089609526 0.97000003
0.24607143 -0.090071432 0.97500002
0.24869144 -0.090348572 0.97800004
0.20025714 -0.088485718 0.97800004
0.20212001 -0.088485718 0.97800004
0.20335715 -0.088214286 0.97500002
0.20416191 -0.087761909 0.97000003
0.20431049 -0.0870381 0.96200007
0.20614287 -0.0870381 0.96200007
0.20797525 -0.0870381 0.96200007
0.20980763 -0.0870381 0.96200007
0.21164002 -0.0870381 0.96200007
0.2134724 -0.0870381 0.96200007
0.21575239 -0.087219052 0.96400005
0.21713716 -0.0870381 0.96200007
0.21896954 -0.0870381 0.96200007
0.22080192 -0.0870381 0.96200007
0.22194001 -0.086766668 0.95900005
0.22376668 -0.086766668 0.95900005
0.22559334 -0.086766668 0.95900005
0.22742002 -0.086766668 0.95900005
0.22924668 -0.086766668 0.95900005
0.23107335 -0.086766668 0.95900005
0.23362859 -0.0870381 0.96200007
0.23546097 -0.0870381 0.96200007
0.23729335 -0.0870381 0.96200007
0.23962288 -0.087219052 0.96400005
0.24221049 -0.087490484 0.96700007
0.24607143 -0.088214286 0.97500002
0.20150001 -0.086357147 0.97500002
0.20231429 -0.085914284 0.97000003
0.20289905 -0.085382864 0.96400005
0.20431049 -0.085205719 0.96200007
0.20550001 -0.084940001 0.95900005
0.20732667 -0.084940001 0.95900005
0.20915334 -0.084940001 0.95900005
0.21098 -0.084940001 0.95900005
0.21280667 -0.084940001 0.95900005
0.21530478 -0.085205719 0.96200007
0.21646 -0.084940001 0.95900005
0.21828668 -0.084940001 0.95900005
0.22011335 -0.084940001 0.95900005
0.22194001 -0.084940001 0.95900005
0.22376668 -0.084940001 0.95900005
0.22559334 -0.084940001 0.95900005
0.22742002 -0.084940001 0.95900005
0.22924668 -0.084940001 0.95900005
0.23107335 -0.084940001 0.95900005
0.23290001 -0.084940001 0.95900005
0.23472668 -0.084940001 0.95900005
0.23655334 -0.084940001 0.95900005
0.23912573 -0.085205719 0.96200007
0.24095811 -0.085205719 0.96200007
0.24607143 -0.086357147 0.97500002
0.19964285 -0.0845 0.97500002
0.20046666 -0.084066667 0.97000003
0.20106287 -0.083546676 0.96400005
0.20247811 -0.083373338 0.96200007
0.20367335 -0.083113335 0.95900005
0.20550001 -0.083113335 0.95900005
0.20732667 -0.083113335 0.95900005
0.20915334 -0.083113335 0.95900005
0.21098 -0.083113335 0.95900005
0.21280667 -0.083113335 0.95900005
0.21463333 -0.083113335 0.95900005
0.21646 -0.083113335 0.95900005
0.21828668 -0.083113335 0.95900005
0.22011335 -0.083113335 0.95900005
0.22194001 -0.083113335 0.95900005
0.22376668 -0.083113335 0.95900005
0.22559334 -0.083113335 0.95900005
0.22742002 -0.083113335 0.95900005
0.22924668 -0.083113335 0.95900005
0.23107335 -0.083113335 0.95900005
0.23290001 -0.083113335 0.95900005
0.23472668 -0.083113335 0.95900005
0.23655334 -0.083113335 0.95900005
0.23912573 -0.083373338 0.96200007
0.24095811 -0.083373338 0.96200007
0.19923334 -0.082473338 0.97300005
0.19984668 -0.081964761 0.96700007
0.20064571 -0.081540957 0.96200007
0.20247811 -0.081540957 0.96200007
0.20367335 -0.081286669 0.95900005
0.20550001 -0.081286669 0.95900005
0.20732667 -0.081286669 0.95900005
0.20915334 -0.081286669 0.95900005
0.21098 -0.081286669 0.95900005
0.21280667 -0.081286669 0.95900005
0.21463333 -0.081286669 0.95900005
0.21646 -0.081286669 0.95900005
0.21828668 -0.081286669 0.95900005
0.21942477 -0.08103238 0.95600003
0.22124572 -0.08103238 0.95600003
0.22306667 -0.08103238 0.95600003
0.22559334 -0.081286669 0.95900005
0.22742002 -0.081286669 0.95900005
0.22924668 -0.081286669 0.95900005
0.23107335 -0.081286669 0.95900005
0.23290001 -0.081286669 0.95900005
0.23472668 -0.081286669 0.95900005
0.23655334 -0.081286669 0.95900005
0.23838001 -0.081286669 0.95900005
0.24095811 -0.081540957 0.96200007
0.24556667 -0.082473338 0.97300005
0.19923334 -0.080619998 0.97300005
0.19984668 -0.080122858 0.96700007
0.20064571 -0.079708576 0.96200007
0.20247811 -0.079708576 0.96200007
0.20367335 -0.079460002 0.95900005
0.20550001 -0.079460002 0.95900005
0.20732667 -0.079460002 0.95900005
0.20849906 -0.079211429 0.95600003
0.21032001 -0.079211429 0.95600003
0.21214095 -0.079211429 0.95600003
0.2139619 -0.079211429 0.95600003
0.21578287 -0.079211429 0.95600003
0.21760382 -0.079211429 0.95600003
0.21942477 -0.079211429 0.95600003
0.22124572 -0.079211429 0.95600003
0.22306667 -0.079211429 0.95600003
0.22488762 -0.079211429 0.95600003
0.22670858 -0.079211429 0.95600003
0.22852953 -0.079211429 0.95600003
0.23107335 -0.079460002 0.95900005
0.23217145 -0.079211429 0.95600003
0.23399238 -0.079211429 0.95600003
0.23655334 -0.079460002 0.95900005
0.23838001 -0.079460002 0.95900005
0.24020667 -0.079460002 0.95900005
0.20046666 -0.078523815 0.97000003
0.20106287 -0.078038096 0.96400005
0.20184667 -0.077633336 0.95900005
0.20367335 -0.077633336 0.95900005
0.20485714 -0.077390477 0.95600003
0.20667811 -0.077390477 0.95600003
0.20849906 -0.077390477 0.95600003
0.21032001 -0.077390477 0.95600003
0.21214095 -0.077390477 0.95600003
0.2139619 -0.077390477 0.95600003
0.21578287 -0.077390477 0.95600003
0.21760382 -0.077390477 0.95600003
0.21942477 -0.077390477 0.95600003
0.22124572 -0.077390477 0.95600003
0.22306667 -0.077390477 0.95600003
0.22488762 -0.077390477 0.95600003
0.22670858 -0.077390477 0.95600003
0.22852953 -0.077390477 0.95600003
0.23035048 -0.077390477 0.95600003
0.23217145 -0.077390477 0.95600003
0.23399238 -0.077390477 0.95600003
0.23581333 -0.077390477 0.95600003
0.23838001 -0.077633336 0.95900005
0.24020667 -0.077633336 0.95900005
0.20046666 -0.07667619 0.97000003
0.20064571 -0.076043814 0.96200007
0.20184667 -0.07580667 0.95900005
0.20303619 -0.075569525 0.95600003
0.20485714 -0.075569525 0.95600003
0.20667811 -0.075569525 0.95600003
0.20849906 -0.075569525 0.95600003
0.21032001 -0.075569525 0.95600003
0.21214095 -0.075569525 0.95600003
0.2139619 -0.075569525 0.95600003
0.21533144 -0.075411431 0.95400006
0.21714859 -0.075411431 0.95400006
0.21896572 -0.075411431 0.95400006
0.22078286 -0.075411431 0.95400006
0.22260001 -0.075411431 0.95400006
0.22441715 -0.075411431 0.95400006
0.22670858 -0.075569525 0.95600003
0.22852953 -0.075569525 0.95600003
0.23035048 -0.075569525 0.95600003
0.23217145 -0.075569525 0.95600003
0.23399238 -0.075569525 0.95600003
0.23581333 -0.075569525 0.95600003
0.23838001 -0.07580667 0.95900005
0.24095811 -0.076043814 0.96200007
0.19861905 -0.074828573 0.97000003
0.19984668 -0.074597143 0.96700007
0.20064571 -0.074211434 0.96200007
0.20184667 -0.073980004 0.95900005
0.20303619 -0.073748574 0.95600003
0.20485714 -0.073748574 0.95600003
0.20667811 -0.073748574 0.95600003
0.20806287 -0.073594287 0.95400006
0.20988001 -0.073594287 0.95400006
0.21169715 -0.073594287 0.95400006
0.2135143 -0.073594287 0.95400006
0.21533144 -0.073594287 0.95400006
0.21714859 -0.073594287 0.95400006
0.21896572 -0.073594287 0.95400006
0.22008857 -0.073362865 0.95100003
0.2219 -0.073362865 0.95100003
0.22441715 -0.073594287 0.95400006
0.2262343 -0.073594287 0.95400006
0.22805144 -0.073594287 0.95400006
0.23035048 -0.073748574 0.95600003
0.23168573 -0.073594287 0.95400006
0.23350286 -0.073594287 0.95400006
0.23532002 -0.073594287 0.95400006
0.23763429 -0.073748574 0.95600003
0.24020667 -0.073980004 0.95900005
0.19984668 -0.07275524 0.96700007
0.20064571 -0.072379053 0.96200007
0.20184667 -0.072153337 0.95900005
0.20303619 -0.071927622 0.95600003
0.20485714 -0.071927622 0.95600003
0.20624572 -0.07177715 0.95400006
0.20806287 -0.07177715 0.95400006
0.20988001 -0.07177715 0.95400006
0.21169715 -0.07177715 0.95400006
0.2135143 -0.07177715 0.95400006
0.2146543 -0.071551435 0.95100003
0.21646571 -0.071551435 0.95100003
0.21827716 -0.071551435 0.95100003
0.22008857 -0.071551435 0.95100003
0.2219 -0.071551435 0.95100003
0.22371143 -0.071551435 0.95100003
0.22552286 -0.071551435 0.95100003
0.22733429 -0.071551435 0.95100003
0.22986858 -0.07177715 0.95400006
0.23095715 -0.071551435 0.95100003
0.23276858 -0.071551435 0.95100003
0.23458001 -0.071551435 0.95100003
0.23763429 -0.071927622 0.95600003
0.24020667 -0.072153337 0.95900005
0.19984668 -0.070913337 0.96700007
0.20106287 -0.070693336 0.96400005
0.20184667 -0.070326671 0.95900005
0.20303619 -0.070106663 0.95600003
0.20485714 -0.070106663 0.95600003
0.20624572 -0.069960006 0.95400006
0.20806287 -0.069960006 0.95400006
0.20988001 -0.069960006 0.95400006
0.21169715 -0.069960006 0.95400006
0.21284285 -0.069740005 0.95100003
0.2146543 -0.069740005 0.95100003
0.21646571 -0.069740005 0.95100003
0.21827716 -0.069740005 0.95100003
0.2193943 -0.069520004 0.94800007
0.22120002 -0.069520004 0.94800007
0.22300573 -0.069520004 0.94800007
0.22481145 -0.069520004 0.94800007
0.22733429 -0.069740005 0.95100003
0.22914572 -0.069740005 0.95100003
0.23022859 -0.069520004 0.94800007
0.2320343 -0.069520004 0.94800007
0.23384 -0.069520004 0.94800007
0.23713715 -0.069960006 0.95400006
0.19984668 -0.069071427 0.96700007
0.20106287 -0.068857148 0.96400005
0.20184667 -0.068500005 0.95900005
0.20303619 -0.068285719 0.95600003
0.20485714 -0.068285719 0.95600003
0.20624572 -0.068142861 0.95400006
0.20740858 -0.067928575 0.95100003
0.20922001 -0.067928575 0.95100003
0.21103144 -0.067928575 0.95100003
0.21284285 -0.067928575 0.95100003
0.21397714 -0.067714289 0.94800007
0.21578288 -0.067714289 0.94800007
0.21758859 -0.067714289 0.94800007
0.2193943 -0.067714289 0.94800007
0.22120002 -0.067714289 0.94800007
0.22300573 -0.067714289 0.94800007
0.22481145 -0.067714289 0.94800007
0.22661716 -0.067714289 0.94800007
0.22842288 -0.067714289 0.94800007
0.23022859 -0.067714289 0.94800007
0.2320343 -0.067714289 0.94800007
0.23384 -0.067714289 0.94800007
0.23639144 -0.067928575 0.95100003
0.20106287 -0.067020953 0.96400005
0.20184667 -0.066673338 0.95900005
0.20303619 -0.066464759 0.95600003
0.20442858 -0.066325717 0.95400006
0.20559715 -0.066117145 0.95100003
0.20740858 -0.066117145 0.95100003
0.20922001 -0.066117145 0.95100003
0.21103144 -0.066117145 0.95100003
0.21217144 -0.065908574 0.94800007
0.21397714 -0.065908574 0.94800007
0.21578288 -0.065908574 0.94800007
0.21758859 -0.065908574 0.94800007
0.2193943 -0.065908574 0.94800007
0.22120002 -0.065908574 0.94800007
0.22300573 -0.065908574 0.94800007
0.22481145 -0.065908574 0.94800007
0.22661716 -0.065908574 0.94800007
0.22842288 -0.065908574 0.94800007
0.23022859 -0.065908574 0.94800007
0.2320343 -0.065908574 0.94800007
0.23384 -0.065908574 0.94800007
0.23564574 -0.065908574 0.94800007
0.19922666 -0.065184765 0.96400005
0.20106287 -0.065184765 0.96400005
0.20184667 -0.064846672 0.95900005
0.20303619 -0.064643808 0.95600003
0.20442858 -0.064508572 0.95400006
0.20559715 -0.064305715 0.95100003
0.2067543 -0.064102866 0.94800007
0.20856002 -0.064102866 0.94800007
0.21036573 -0.064102866 0.94800007
0.21217144 -0.064102866 0.94800007
0.21397714 -0.064102866 0.94800007
0.21578288 -0.064102866 0.94800007
0.21758859 -0.064102866 0.94800007
0.2193943 -0.064102866 0.94800007
0.22120002 -0.064102866 0.94800007
0.22300573 -0.064102866 0.94800007
0.22481145 -0.064102866 0.94800007
0.22661716 -0.064102866 0.94800007
0.22842288 -0.064102866 0.94800007
0.23022859 -0.064102866 0.94800007
0.2320343 -0.064102866 0.94800007
0.23384 -0.064102866 0.94800007
0.23564574 -0.064102866 0.94800007
0.20064571 -0.063217148 0.96200007
0.20184667 -0.063020006 0.95900005
0.20261145 -0.062691435 0.95400006
0.20378572 -0.062494289 0.95100003
0.20559715 -0.062494289 0.95100003
0.2067543 -0.062297143 0.94800007
0.20856002 -0.062297143 0.94800007
0.21036573 -0.062297143 0.94800007
0.21217144 -0.062297143 0.94800007
0.21397714 -0.062297143 0.94800007
0.21532762 -0.062165715 0.94600004
0.21712953 -0.062165715 0.94600004
0.21893144 -0.062165715 0.94600004
0.22073333 -0.062165715 0.94600004
0.22253524 -0.062165715 0.94600004
0.22433716 -0.062165715 0.94600004
0.22613905 -0.062165715 0.94600004
0.22842288 -0.062297143 0.94800007
0.22974287 -0.062165715 0.94600004
0.23154476 -0.062165715 0.94600004
0.23334667 -0.062165715 0.94600004
0.23514858 -0.062165715 0.94600004
0.23745145 -0.062297143 0.94800007
0.20064571 -0.061384764 0.96200007
0.20184667 -0.06119334 0.95900005
0.20261145 -0.060874287 0.95400006
0.20378572 -0.060682859 0.95100003
0.20494859 -0.060491435 0.94800007
0.2067543 -0.060491435 0.94800007
0.20812002 -0.060363814 0.94600004
0.20992191 -0.060363814 0.94600004
0.21172382 -0.060363814 0.94600004
0.21352573 -0.060363814 0.94600004
0.21532762 -0.060363814 0.94600004
0.21712953 -0.060363814 0.94600004
0.21893144 -0.060363814 0.94600004
0.22073333 -0.060363814 0.94600004
0.22253524 -0.060363814 0.94600004
0.22433716 -0.060363814 0.94600004
0.22613905 -0.060363814 0.94600004
0.22794096 -0.060363814 0.94600004
0.22974287 -0.060363814 0.94600004
0.23154476 -0.060363814 0.94600004
0.23334667 -0.060363814 0.94600004
0.23514858 -0.060363814 0.94600004
0.23695047 -0.060363814 0.94600004
0.20121524 -0.059180956 0.95600003
0.20261145 -0.059057143 0.95400006
0.20314287 -0.05868572 0.94800007
0.20494859 -0.05868572 0.94800007
0.2063181 -0.058561906 0.94600004
0.20812002 -0.058561906 0.94600004
0.20992191 -0.058561906 0.94600004
0.21172382 -0.058561906 0.94600004
0.21352573 -0.058561906 0.94600004
0.21532762 -0.058561906 0.94600004
0.21712953 -0.058561906 0.94600004
0.21893144 -0.058561906 0.94600004
0.22073333 -0.058561906 0.94600004
0.22253524 -0.058561906 0.94600004
0.22433716 -0.058561906 0.94600004
0.22613905 -0.058561906 0.94600004
0.22794096 -0.058561906 0.94600004
0.22974287 -0.058561906 0.94600004
0.23154476 -0.058561906 0.94600004
0.23334667 -0.058561906 0.94600004
0.23514858 -0.058561906 0.94600004
0.23695047 -0.058561906 0.94600004
0.20079429 -0.057240006 0.95400006
0.2019743 -0.05706 0.95100003
0.20314287 -0.056880001 0.94800007
0.20494859 -0.056880001 0.94800007
0.2063181 -0.056760002 0.94600004
0.20812002 -0.056760002 0.94600004
0.20992191 -0.056760002 0.94600004
0.21172382 -0.056760002 0.94600004
0.21352573 -0.056760002 0.94600004
0.21464476 -0.05658 0.94300002
0.21644095 -0.05658 0.94300002
0.21823715 -0.05658 0.94300002
0.22003333 -0.05658 0.94300002
0.22253524 -0.056760002 0.94600004
0.22362572 -0.05658 0.94300002
0.22542191 -0.05658 0.94300002
0.22721811 -0.05658 0.94300002
0.22901429 -0.05658 0.94300002
0.23081048 -0.05658 0.94300002
0.23260666 -0.05658 0.94300002
0.23514858 -0.056760002 0.94600004
0.23695047 -0.056760002 0.94600004
0.23925716 -0.056880001 0.94800007
0.20002002 -0.055713337 0.95900005
0.20016286 -0.055248573 0.95100003
0.2019743 -0.055248573 0.95100003
0.20314287 -0.055074289 0.94800007
0.20451619 -0.054958098 0.94600004
0.2063181 -0.054958098 0.94600004
0.20812002 -0.054958098 0.94600004
0.20992191 -0.054958098 0.94600004
0.21172382 -0.054958098 0.94600004
0.21352573 -0.054958098 0.94600004
0.21464476 -0.05478381 0.94300002
0.21644095 -0.05478381 0.94300002
0.21823715 -0.05478381 0.94300002
0.22003333 -0.05478381 0.94300002
0.22182953 -0.05478381 0.94300002
0.22291429 -0.054609526 0.94000006
0.22470477 -0.054609526 0.94000006
0.22649524 -0.054609526 0.94000006
0.22828573 -0.054609526 0.94000006
0.23081048 -0.05478381 0.94300002
0.23260666 -0.05478381 0.94300002
0.23514858 -0.054958098 0.94600004
0.23695047 -0.054958098 0.94600004
0.23925716 -0.055074289 0.94800007
0.20016286 -0.053437144 0.95100003
0.2019743 -0.053437144 0.95100003
0.20271429 -0.053156193 0.94600004
0.20451619 -0.053156193 0.94600004
0.20566382 -0.05298762 0.94300002
0.20746 -0.05298762 0.94300002
0.2092562 -0.05298762 0.94300002
0.21105239 -0.05298762 0.94300002
0.21284857 -0.05298762 0.94300002
0.21464476 -0.05298762 0.94300002
0.21644095 -0.05298762 0.94300002
0.21823715 -0.05298762 0.94300002
0.22003333 -0.05298762 0.94300002
0.22182953 -0.05298762 0.94300002
0.22291429 -0.052819051 0.94000006
0.22470477 -0.052819051 0.94000006
0.22649524 -0.052819051 0.94000006
0.22828573 -0.052819051 0.94000006
0.23007621 -0.052819051 0.94000006
0.23260666 -0.05298762 0.94300002
0.23440285 -0.05298762 0.94300002
0.23695047 -0.053156193 0.94600004
0.23925716 -0.053268574 0.94800007
0.24106286 -0.053268574 0.94800007
0.1993943 -0.051897142 0.95600003
0.20016286 -0.051625714 0.95100003
0.20133716 -0.051462859 0.94800007
0.20271429 -0.051354285 0.94600004
0.20451619 -0.051354285 0.94600004
0.20566382 -0.051191427 0.94300002
0.20746 -0.051191427 0.94300002
0.2092562 -0.051191427 0.94300002
0.21105239 -0.051191427 0.94300002
0.21284857 -0.051191427 0.94300002
0.21464476 -0.051191427 0.94300002
0.21575239 -0.051028572 0.94000006
0.21754287 -0.051028572 0.94000006
0.21933335 -0.051028572 0.94000006
0.22112381 -0.051028572 0.94000006
0.22244 -0.050919998 0.93800002
0.22422667 -0.050919998 0.93800002
0.22601335 -0.050919998 0.93800002
0.22828573 -0.051028572 0.94000006
0.23007621 -0.051028572 0.94000006
0.23186669 -0.051028572 0.94000006
0.23365715 -0.051028572 0.94000006
0.23619905 -0.051191427 0.94300002
0.23875239 -0.051354285 0.94600004
0.24106286 -0.051462859 0.94800007
0.20016286 -0.049814284 0.95100003
0.20091239 -0.049552381 0.94600004
0.20207143 -0.049395241 0.94300002
0.20386761 -0.049395241 0.94300002
0.20500953 -0.049238101 0.94000006
0.20680001 -0.049238101 0.94000006
0.20859049 -0.049238101 0.94000006
0.21038096 -0.049238101 0.94000006
0.21217144 -0.049238101 0.94000006
0.21396191 -0.049238101 0.94000006
0.21529333 -0.049133334 0.93800002
0.21708 -0.049133334 0.93800002
0.21886668 -0.049133334 0.93800002
0.22065334 -0.049133334 0.93800002
0.22244 -0.049133334 0.93800002
0.22422667 -0.049133334 0.93800002
0.22601335 -0.049133334 0.93800002
0.2278 -0.049133334 0.93800002
0.22958668 -0.049133334 0.93800002
0.23137332 -0.049133334 0.93800002
0.23365715 -0.049238101 0.94000006
0.23619905 -0.049395241 0.94300002
0.23875239 -0.049552381 0.94600004
0.24182571 -0.049814284 0.95100003
0.19897716 -0.048154291 0.95400006
0.19953144 -0.047851432 0.94800007
0.20091239 -0.047750477 0.94600004
0.20207143 -0.047599047 0.94300002
0.20321907 -0.047447622 0.94000006
0.20457333 -0.047346666 0.93800002
0.20636001 -0.047346666 0.93800002
0.20814666 -0.047346666 0.93800002
0.20993334 -0.047346666 0.93800002
0.21172 -0.047346666 0.93800002
0.21350667 -0.047346666 0.93800002
0.21529333 -0.047346666 0.93800002
0.21708 -0.047346666 0.93800002
0.21886668 -0.047346666 0.93800002
0.22065334 -0.047346666 0.93800002
0.22244 -0.047346666 0.93800002
0.22422667 -0.047346666 0.93800002
0.22601335 -0.047346666 0.93800002
0.2278 -0.047346666 0.93800002
0.22958668 -0.047346666 0.93800002
0.23137332 -0.047346666 0.93800002
0.23316 -0.047346666 0.93800002
0.23544763 -0.047447622 0.94000006
0.23799524 -0.047599047 0.94300002
0.24106286 -0.047851432 0.94800007
0.19953144 -0.046045717 0.94800007
0.20091239 -0.045948572 0.94600004
0.20142858 -0.045657143 0.94000006
0.20321907 -0.045657143 0.94000006
0.20457333 -0.045560002 0.93800002
0.20636001 -0.045560002 0.93800002
0.20814666 -0.045560002 0.93800002
0.20993334 -0.045560002 0.93800002
0.21172 -0.045560002 0.93800002
0.21350667 -0.045560002 0.93800002
0.21529333 -0.045560002 0.93800002
0.21708 -0.045560002 0.93800002
0.21816668 -0.045414288 0.93500006
0.21994764 -0.045414288 0.93500006
0.22172859 -0.045414288 0.93500006
0.22350954 -0.045414288 0.93500006
0.22529049 -0.045414288 0.93500006
0.2278 -0.045560002 0.93800002
0.22958668 -0.045560002 0.93800002
0.23137332 -0.045560002 0.93800002
0.23316 -0.045560002 0.93800002
0.23494667 -0.045560002 0.93800002
0.23723811 -0.045657143 0.94000006
0.24106286 -0.046045717 0.94800007
0.19953144 -0.044240002 0.94800007
0.20091239 -0.044146664 0.94600004
0.20142858 -0.043866668 0.94000006
0.20321907 -0.043866668 0.94000006
0.20457333 -0.043773334 0.93800002
0.20636001 -0.043773334 0.93800002
0.20814666 -0.043773334 0.93800002
0.20993334 -0.043773334 0.93800002
0.21172 -0.043773334 0.93800002
0.21282382 -0.043633334 0.93500006
0.21460478 -0.043633334 0.93500006
0.21638572 -0.043633334 0.93500006
0.21816668 -0.043633334 0.93500006
0.21994764 -0.043633334 0.93500006
0.22172859 -0.043633334 0.93500006
0.22350954 -0.043633334 0.93500006
0.22529049 -0.043633334 0.93500006
0.22707145 -0.043633334 0.93500006
0.22885239 -0.043633334 0.93500006
0.23063333 -0.043633334 0.93500006
0.23316 -0.043773334 0.93800002
0.23494667 -0.043773334 0.93800002
0.23673333 -0.043773334 0.93800002
0.24106286 -0.044240002 0.94800007
0.24363716 -0.044380002 0.95100003
0.19953144 -0.04243429 0.94800007
0.20091239 -0.042344764 0.94600004
0.20142858 -0.042076193 0.94000006
0.20278667 -0.041986667 0.93800002
0.20457333 -0.041986667 0.93800002
0.20636001 -0.041986667 0.93800002
0.20748097 -0.041852385 0.93500006
0.20926192 -0.041852385 0.93500006
0.21104287 -0.041852385 0.93500006
0.21282382 -0.041852385 0.93500006
0.21460478 -0.041852385 0.93500006
0.21638572 -0.041852385 0.93500006
0.21816668 -0.041852385 0.93500006
0.21994764 -0.041852385 0.93500006
0.22172859 -0.041852385 0.93500006
0.22350954 -0.041852385 0.93500006
0.22529049 -0.041852385 0.93500006
0.22707145 -0.041852385 0.93500006
0.22885239 -0.041852385 0.93500006
0.23063333 -0.041852385 0.93500006
0.23241431 -0.041852385 0.93500006
0.23494667 -0.041986667 0.93800002
0.23673333 -0.041986667 0.93800002
0.23979144 -0.042210475 0.94300002
0.20091239 -0.04054286 0.94600004
0.20142858 -0.040285718 0.94000006
0.20278667 -0.040200002 0.93800002
0.20457333 -0.040200002 0.93800002
0.20636001 -0.040200002 0.93800002
0.20748097 -0.040071432 0.93500006
0.20926192 -0.040071432 0.93500006
0.21104287 -0.040071432 0.93500006
0.21282382 -0.040071432 0.93500006
0.21460478 -0.040071432 0.93500006
0.21638572 -0.040071432 0.93500006
0.2177 -0.039985713 0.93300003
0.21947715 -0.039985713 0.93300003
0.22125429 -0.039985713 0.93300003
0.22350954 -0.040071432 0.93500006
0.22529049 -0.040071432 0.93500006
0.22707145 -0.040071432 0.93500006
0.22885239 -0.040071432 0.93500006
0.23063333 -0.040071432 0.93500006
0.23241431 -0.040071432 0.93500006
0.23494667 -0.040200002 0.93800002
0.23673333 -0.040200002 0.93800002
0.23902857 -0.040285718 0.94000006
0.19953144 -0.03882286 0.94800007
0.20091239 -0.038740952 0.94600004
0.20142858 -0.038495239 0.94000006
0.20278667 -0.038413331 0.93800002
0.20457333 -0.038413331 0.93800002
0.20636001 -0.038413331 0.93800002
0.20748097 -0.038290478 0.93500006
0.20926192 -0.038290478 0.93500006
0.21104287 -0.038290478 0.93500006
0.21282382 -0.038290478 0.93500006
0.21460478 -0.038290478 0.93500006
0.21592286 -0.03820857 0.93300003
0.2177 -0.03820857 0.93300003
0.21947715 -0.03820857 0.93300003
0.22125429 -0.03820857 0.93300003
0.22350954 -0.038290478 0.93500006
0.22529049 -0.038290478 0.93500006
0.22707145 -0.038290478 0.93500006
0.22885239 -0.038290478 0.93500006
0.23063333 -0.038290478 0.93500006
0.23241431 -0.038290478 0.93500006
0.23494667 -0.038413331 0.93800002
0.23673333 -0.038413331 0.93800002
0.23902857 -0.038495239 0.94000006
0.19953144 -0.037017144 0.94800007
0.20091239 -0.036939051 0.94600004
0.20207143 -0.036821906 0.94300002
0.20278667 -0.036626667 0.93800002
0.20457333 -0.036626667 0.93800002
0.20636001 -0.036626667 0.93800002
0.20748097 -0.036509525 0.93500006
0.20926192 -0.036509525 0.93500006
0.21172 -0.036626667 0.93800002
0.21282382 -0.036509525 0.93500006
0.21460478 -0.036509525 0.93500006
0.21592286 -0.036431432 0.93300003
0.2177 -0.036431432 0.93300003
0.21947715 -0.036431432 0.93300003
0.22125429 -0.036431432 0.93300003
0.22350954 -0.036509525 0.93500006
0.22529049 -0.036509525 0.93500006
0.22707145 -0.036509525 0.93500006
0.22885239 -0.036509525 0.93500006
0.23063333 -0.036509525 0.93500006
0.23241431 -0.036509525 0.93500006
0.23494667 -0.036626667 0.93800002
0.23673333 -0.036626667 0.93800002
0.23902857 -0.036704764 0.94000006
0.20091239 -0.035137143 0.94600004
0.20207143 -0.035025716 0.94300002
0.20321907 -0.034914289 0.94000006
0.20457333 -0.034839999 0.93800002
0.20636001 -0.034839999 0.93800002
0.20814666 -0.034839999 0.93800002
0.20993334 -0.034839999 0.93800002
0.21172 -0.034839999 0.93800002
0.21350667 -0.034839999 0.93800002
0.21460478 -0.034728575 0.93500006
0.21638572 -0.034728575 0.93500006
0.21816668 -0.034728575 0.93500006
0.21994764 -0.034728575 0.93500006
0.22172859 -0.034728575 0.93500006
0.22350954 -0.034728575 0.93500006
0.22529049 -0.034728575 0.93500006
0.22707145 -0.034728575 0.93500006
0.22958668 -0.034839999 0.93800002
0.23137332 -0.034839999 0.93800002
0.23316 -0.034839999 0.93800002
0.23494667 -0.034839999 0.93800002
0.23673333 -0.034839999 0.93800002
0.23902857 -0.034914289 0.94000006
0.20386761 -0.033229522 0.94300002
0.20500953 -0.03312381 0.94000006
0.20680001 -0.03312381 0.94000006
0.20859049 -0.03312381 0.94000006
0.21038096 -0.03312381 0.94000006
0.21217144 -0.03312381 0.94000006
0.21396191 -0.03312381 0.94000006
0.21529333 -0.033053335 0.93800002
0.21708 -0.033053335 0.93800002
0.21886668 -0.033053335 0.93800002
0.22065334 -0.033053335 0.93800002
0.22244 -0.033053335 0.93800002
0.22422667 -0.033053335 0.93800002
0.22601335 -0.033053335 0.93800002
0.2278 -0.033053335 0.93800002
0.22958668 -0.033053335 0.93800002
0.23137332 -0.033053335 0.93800002
0.23365715 -0.03312381 0.94000006
0.23544763 -0.03312381 0.94000006
0.23723811 -0.03312381 0.94000006
0.23979144 -0.033229522 0.94300002
0.20566382 -0.031433333 0.94300002
0.20746 -0.031433333 0.94300002
0.2092562 -0.031433333 0.94300002
0.21105239 -0.031433333 0.94300002
0.21284857 -0.031433333 0.94300002
0.21464476 -0.031433333 0.94300002
0.21644095 -0.031433333 0.94300002
0.21823715 -0.031433333 0.94300002
0.21933335 -0.031333335 0.94000006
0.22112381 -0.031333335 0.94000006
0.22291429 -0.031333335 0.94000006
0.22470477 -0.031333335 0.94000006
0.22649524 -0.031333335 0.94000006
0.22828573 -0.031333335 0.94000006
0.23007621 -0.031333335 0.94000006
0.23186669 -0.031333335 0.94000006
0.23365715 -0.031333335 0.94000006
0.23544763 -0.031333335 0.94000006
0.23723811 -0.031333335 0.94000006
0.21464476 -0.029637143 0.94300002
0.21644095 -0.029637143 0.94300002
0.21823715 -0.029637143 0.94300002
0.22003333 -0.029637143 0.94300002
0.22182953 -0.029637143 0.94300002
0.22362572 -0.029637143 0.94300002
0.24295567 -0.040031813 0.94142425
0.19230084 -0.084158525 0.97028375
0 0 0 1 0 0 0 1 0 0 0 1 0 0 0 0 0 1225 1 0 0
