ply
format ascii 1.0
comment PCL generated
element vertex 1166
property float x
property float y
property float z
element camera 0
property float view_px
property float view_py
property float view_pz
property float x_axisx
property float x_axisy
property float x_axisz
property float y_axisx
property float y_axisy
property float y_axisz
property float z_axisx
property float z_axisy
property float z_axisz
property float focal
property float scalex
property float scaley
property float centerx
property float centery
property int viewportx
property int viewporty
property float k1
property float k2
end_header
-0.00050184719 -0.00016823893 -0.0008507694
0.010386634 0.00013203753 -0.0018135065
-0.017056534 0.00016317113 -0.0013293943
-0.0036393823 -0.00023468639 0.0054248259
-0.012782187 0.00017620251 -9.8652541e-05
0.010697713 -0.00013751686 0.002581856
-0.016103558 -0.00020173116 0.006159232
0.0075319288 0.00018161435 0.00041246324
0.027637418 0.00016809787 -0.00086408906
-0.0085397167 -0.00012170846 0.0027279358
0.001701633 0.00024427992 0.0063308822
-0.013737926 0.00024468385 0.0063690296
0.01276883 9.2635368e-05 -0.0038919398
0.02483172 -0.00020264159 0.0023983689
0.015457105 0.00014490358 -0.003054664
0.013228311 -0.00021579144 0.003640302
0.0063848901 -0.00020963013 0.0074952785
-0.0066078324 0.00023013401 0.004994879
0.015551441 0.00017576221 -0.00014023889
0.0079512829 0.00023069041 0.0050474238
-0.00016483119 0.00025046334 0.0069148708
-0.0031629938 -0.00013872053 -9.1571063e-05
0.0047133276 -0.00022715292 0.0076020062
0.021147778 0.00013498776 0.0010167633
0.0041752714 0.00021415405 0.0034856589
0.0027876627 -0.00019016702 0.0033067449
0.026072271 0.00018594846 0.00082179619
0.010652793 -0.00012008131 -0.00068985863
-0.0019094528 -0.00025822243 0.0076476741
-0.0075540231 0.00022844598 0.0048354547
-0.028672596 -0.00016000454 -0.0016284545
0.0098751541 -0.00015879865 -0.0017423495
-0.019518748 0.0002068731 0.0027980129
-0.0070680254 -0.00023943749 0.0058735404
-0.015734861 -0.00024100303 0.0060213972
-0.022479037 0.00019253824 0.0014441676
-0.01208173 -0.00017452725 -0.00025687114
-0.012932778 0.0002452496 0.0064224619
0.019165894 0.00013447709 -0.0040393877
-0.0042414707 -0.00015622667 0.0043124231
-0.019728297 0.0001380204 -0.00047778001
-0.0020628159 9.5312556e-05 0.0029536884
-0.0059959772 -3.3277865e-05 0.0033329688
-0.0040865196 -0.00023510617 0.0054644733
0.020014158 0.00019410133 0.0015917891
0.0098506184 -0.00017517713 -0.00019549429
0.025047269 -0.00015911981 -0.0010920895
-0.0094431741 0.00022472651 0.0044841701
0.025080947 -0.00019419137 0.0016002967
0.0031538003 0.00024106681 0.0060274205
0.014976375 0.00019322765 0.0015092784
-6.047545e-05 -0.00025013351 0.0068837204
0.027309503 -0.00017114087 -0.00057669502
0.0025644542 -0.0001440553 -0.0031347792
0.014062135 -0.00015945296 -0.0016805541
0.016505629 -0.00022398322 0.0044139684
-0.025095243 -0.00017990325 0.00025086256
-0.021889118 0.0001828332 0.00052757951
0.0036038365 -0.00024682915 0.006571644
-0.022874134 -0.00016592418 -0.0010693825
-0.0096653635 0.00012982286 -0.0017208399
-0.014939381 0.00019001383 0.001205749
-0.0055555729 0.00023221993 0.0051918835
-0.0067169601 -0.00017804357 0.0032613419
0.027837604 -0.00016505772 -0.0011512145
0.027491836 -6.715722e-05 -0.0044999979
0.0082632834 -0.00024957437 0.0068309121
-0.00017586154 -0.00024597894 0.006491343
0.013229506 -0.00024241298 0.0061545591
-0.0045205755 -0.00023498083 0.005452638
0.0071524438 -0.0002445374 0.0063551972
0.0099121686 0.00018759586 0.00097738742
-0.017332938 0.00021677201 0.0037329125
-0.018595383 -0.00010602934 0.00095538056
-0.0025999977 -0.00024910315 0.0067864102
-0.0025048251 0.00023623041 0.005570651
-0.026364703 -0.00019283294 0.0014719988
-0.012544728 0.00017171196 -0.00052276062
-0.0077092373 0.00016744535 -0.00092571741
-0.011595483 -0.00024581005 0.0064753941
0.01066803 -0.00024800849 0.0066830236
0.019133708 -0.00023450503 0.0054076971
0.004021618 -0.00023782067 0.0057208408
0.016414158 0.00016380675 -0.00059037667
-0.0088922875 0.00023778927 0.0057178722
0.0026424802 -0.00022111091 0.0041426937
0.0053406642 -6.6531647e-05 -0.0013785913
-0.000599675 -0.00016613553 0.0012681886
-0.0031903198 0.00019412642 0.0015941579
0.0099273967 0.0002372717 0.005668994
-0.00062886585 2.9237795e-05 0.0033943388
0.008471733 9.0433634e-05 -0.0022237636
-0.0010567118 -0.00011189874 -0.0040041823
-0.011124574 0.00020339242 0.0024692803
-0.024286188 9.946576e-06 -0.0040841945
3.3048615e-05 -0.00024255182 0.0061676726
-0.021804385 -0.00022536072 0.0045440663
-0.01323415 -0.00022452412 0.0044650533
-0.012189158 -0.00024981517 0.006853655
-0.0080548581 -0.0002352023 0.0054735527
0.017533287 0.00017124857 0.0020723529
-0.011780848 0.00014552672 0.0015212345
0.014502878 0.00023647687 0.0055939248
-0.0063651125 7.9193094e-05 0.0016642418
0.017086077 8.4693755e-05 -0.0040923459
0.0062756026 0.00016649335 -0.0010156271
-0.0017030245 0.00014815046 0.0013629312
0.01714527 0.00013649404 0.0002187689
-0.017860984 -0.00015971942 -9.3288567e-05
-0.004869841 0.00020330095 0.002460643
-0.011804509 0.00016146917 -0.00020201039
-0.0064322618 -0.00023830844 0.0057669054
0.017454065 -0.00020523512 0.0026433172
0.020035913 -0.00023123994 0.0050993292
0.00055315456 0.0001730384 -0.00039748714
0.013886505 -0.00024599265 0.0064926408
0.014099726 -0.00014947906 -0.0026225329
0.018284958 0.00018250247 0.00049634709
0.0015375811 -0.00023877587 0.0058110505
0.0060561746 -0.00015525287 -0.0010515961
0.013976796 0.00017874435 0.00014141116
-0.0055096094 7.0361741e-05 -0.00449424
-0.024721231 -0.00019922011 0.0020752319
-0.0038660367 -0.0002389484 0.0058273501
-0.014689661 -0.00017684887 -3.7610102e-05
0.0098852059 -0.00022283889 0.0043058936
0.021164607 0.00014388317 -0.00020932901
-0.023506025 0.00020465913 0.0025889154
0.01234514 -0.00024456313 0.0063576284
0.001330204 -0.0002209489 0.0041273991
-0.021155946 -0.00018650175 0.00087405811
0.014372536 -0.00023503839 0.0054580723
0.0041292608 -0.00017049702 -0.00063750416
-0.024090303 -0.0001547404 -0.0021256271
-0.019987907 0.00010495995 -0.0025023159
0.023318965 -9.7240802e-05 0.00020179086
-0.021803608 -0.00021139081 0.0032246853
-0.0027495213 0.00023147445 0.0051214783
0.0059967679 -3.1904699e-05 0.0032753926
0.017457783 -0.00021080642 0.0031694977
-0.010711459 -0.00018051181 0.0035830338
0.0013095647 0.00018653486 0.00087718188
0.013925314 0.00018860793 0.002652952
-0.0077658743 0.00017211727 -0.00048448081
-0.027528686 -0.00013579796 -0.0039146338
-0.013118247 -0.00022975678 0.0049592508
-0.0083728321 0.00017521779 -0.00019165441
0.018993394 0.00019366185 0.0015502861
-0.010666802 -7.2246898e-05 0.00033047801
-0.0091658104 3.8989278e-05 -0.0041118995
0.027074048 0.00014431133 -0.0031105955
-0.010535057 0.00022633861 0.0046364283
-0.004052293 -0.00017196187 -0.000499157
-0.022641417 0.00020197712 0.0023356122
-0.010598865 -0.00015783829 -0.0018330502
-0.0012957306 0.00024774761 0.006658385
-0.021936668 9.7996701e-05 -0.0040010535
0.01116425 0.00024210784 0.0061257384
0.0062785042 -0.00017192356 -0.00050277484
0.013715934 0.00022832437 0.004823966
0.012619093 -0.00024147681 0.0060661435
-0.0084300609 -0.00017729675 4.6917794e-06
0.0027656029 -0.000197157 0.0018803787
0.011868827 -0.00018892033 0.0011024722
0.010992205 -0.00019374378 0.0038056928
0.004092644 -0.00015810032 -0.0018083046
0.012713401 -0.00015111954 0.0067814742
0.0063839555 -0.00011992706 0.003036713
-0.0091334581 -0.0002340511 0.0053648269
0.026341131 -0.00018360738 0.00060069456
0.017139299 0.00023077235 0.0050551668
-0.0049963742 -0.00023712379 0.005655027
-0.0063835904 0.00022549792 0.0045570238
0.0046518268 0.00014016415 -0.0035022749
0.025046144 0.00019186789 0.0013808521
0.014282833 0.00011778028 0.0014983272
-0.020014893 -0.00016767744 -0.000536646
-0.0020509276 -0.00024648759 0.006539383
-0.0096894978 -0.00015017719 -0.0025565997
-0.013937627 0.00016187711 0.0017562602
-0.0013313955 -0.00016152067 0.0021218678
-0.012009324 -0.00014311996 -0.0032231165
-0.0019834673 0.00016588594 -0.0010729944
-0.0061200452 0.00013389073 -0.0040947655
-0.01270688 -0.00022403155 0.004418538
0.019325813 9.4182229e-05 0.0017156793
-0.0063689519 0.00021872538 0.0039173979
0.014984849 0.0002143032 0.0034997477
-0.0074554905 -0.00016000068 0.0019116293
-0.016399346 0.00015373067 -0.0016691261
0.025007227 0.00013826447 -0.0036816911
-0.028017977 -0.00016848398 -0.00082762307
-0.018259427 0.00018940044 0.0016248947
-0.023968432 -0.00019617617 0.0017877445
0.001910212 0.00013106632 -0.0043615145
-0.0012504498 0.00020735526 0.0028435523
0.0047183633 0.00024341389 0.0062490902
-0.018011067 -0.00023034796 0.0050150845
0.024121851 0.00014995727 -0.0025773677
0.018452402 0.00017210963 -0.00048520236
0.0074641546 0.00013494422 0.0012805813
-0.012087184 0.00020800618 0.0029050305
-0.006035069 -0.00015597726 0.00048564715
0.0017599184 -0.00015108855 -0.0024705257
0.01348335 0.00018868617 0.0010803639
0.020014867 -0.00018894546 0.0011048471
-0.017530121 0.00019146351 0.0023031281
0.024123156 0.00017010536 -0.00067448977
-0.010692095 0.00018716286 0.0021727472
-0.0096442038 -0.00017703779 -1.9765286e-05
-0.0098903794 -0.00024279382 0.0071657524
0.017122699 0.00015776634 -0.0014252261
0.0088966414 -0.00023034662 0.0050149551
-0.022641284 0.0001371098 -0.0028806436
-0.014035141 0.0002030302 0.0024350756
-0.0034130674 -0.00017220988 -0.00047573342
0.0023651565 0.00023005273 0.004987197
-0.025755798 0.00018332334 0.00057387032
0.0031936343 -0.00021661895 0.0037184535
-0.015605591 -0.00014615404 -0.0029365649
0.014739795 -0.00017929512 0.00019342522
0.026706845 -0.00019516928 0.0016926521
0.014730928 4.2218941e-05 -0.0035828359
-0.027935773 -9.2568473e-05 0.0010206241
0.0096123042 0.00018726091 0.0021438082
0.016336227 -0.00013768482 -0.0037364336
0.017796582 0.00014879977 -0.0026866884
-0.016807128 0.00022742026 0.0047385804
0.0049659102 -0.00025172945 0.0070344466
0.012311746 -0.00021903116 0.0039462764
0.0010092361 -0.00010392311 -0.00054624019
-0.0243965 -0.00019679399 0.001846096
0.0053405194 0.00019010663 0.0012145147
-0.021198301 0.00018762361 0.00098001107
-0.00021294992 -1.315326e-05 0.0016054234
-0.0134956 -0.0001408651 -0.0033986582
-0.0068753543 -0.0001330013 -0.0041787671
-0.012600245 0.00022773728 0.0067993868
0.026476299 -0.00013038312 -0.0018910309
-0.018569956 -0.00013026367 -0.00089661899
0.026284993 0.00016335965 -0.001311585
-0.022191651 -1.2065659e-05 0.00068380928
0.019021977 0.00018790014 0.0010061235
0.015780609 0.00023592181 0.0055415044
0.012794478 -0.00021518707 0.0035832215
-0.020930657 -0.00022165866 0.0041944296
0.00609174 0.00020875098 0.0029753724
0.0048830202 -0.00014848971 -0.0014015784
0.017881397 -0.00014394675 0.0013935086
0.00045502797 -0.0002396503 0.0058936374
0.011332978 0.00016432138 -0.0012207605
-0.00061710505 -0.00016349815 0.0025377278
0.015397489 0.00016708759 0.00030955553
-0.0047698803 0.00018360653 0.00060061528
0.0024305515 3.8475489e-05 0.00081469683
0.025994975 -0.00020032551 0.002179628
-0.0089690574 0.00017134647 -0.00055727904
0.02103599 -0.00021094325 0.0031824179
-0.0031250613 -0.00023013107 0.0049946038
0.0010084169 -0.00018050248 0.00030745313
0.0084670093 -0.00018772746 0.0009898151
-0.021189889 -0.00021215668 0.0032970184
0.0050128745 -0.00023749311 0.0056899069
0.0097695589 -0.0002442016 0.0063234842
-0.01570751 0.00010444284 0.00038230387
-0.018581953 0.00018203846 0.00045251881
-0.0020721948 0.00019998621 0.003636831
0.021596465 0.00020554739 0.002672811
-0.0060929377 -0.00017342773 -0.00036071413
-0.00098956737 0.00019553617 0.0017273021
-0.015447048 -0.00017417685 -0.00028996699
-0.014930894 -0.00014268784 -0.0032639259
0.0091737937 0.0001196002 -0.0035304236
-0.022437556 -0.0002175416 0.0038055908
0.027804933 0.00014431206 -0.0031105292
0.0059214714 -0.00023422751 0.0053814868
-0.021353202 -0.00017543334 -0.00017129463
-0.0017478431 -0.00014699965 -0.001901504
-0.004844395 0.00024115118 0.0060353894
-0.021706678 0.00021550166 0.0036129327
0.020856416 -0.0002178502 0.0038347426
0.024440622 -0.00021093502 0.0031816366
-0.022525864 0.00015243358 0.0010606601
-0.0085324226 -9.59311e-05 0.0021967026
0.004882805 -0.00024726553 0.006612855
-0.0020648623 0.00022031767 0.0040677795
-0.024236063 0.00018832642 0.0010463856
0.012725963 -0.00018868419 0.0010801721
0.0069973818 -0.00020631499 0.0027453047
0.00053852575 -0.00021213482 0.0032949555
0.02126825 9.2063376e-05 0.0047609732
0.021683669 0.00021403076 0.0034740141
-0.012695271 -0.00014415887 -0.0031249966
-0.00075563643 0.00023665432 0.0056106863
0.013966766 -0.00021258576 0.0033375442
0.0084650274 0.0001299562 -0.0027121119
-0.019714195 0.00019873813 0.0052532903
-0.005502101 0.00016084725 -0.0015488722
-0.013285987 -0.00016759483 -0.00091159891
0.010660512 -0.00022975974 0.0049595279
0.018346885 0.00014848208 -0.0027166915
0.013570822 -0.00016567523 0.0020802526
0.025406351 -0.00020812402 0.0029161528
-0.013193071 0.00023560176 0.0055112764
0.015510802 -0.00024125742 0.0060454248
0.023413397 0.00021598124 0.0036582239
0.0077718711 0.00013656971 -0.00075695227
-0.0037094119 0.00024132646 0.006051945
-0.0094791241 -0.00023009985 0.0049916515
0.013223878 -0.00014300655 0.0013008089
0.018148379 -0.00022443118 0.004456277
0.0024183395 -0.00018247805 0.0017041587
-0.0035637768 -0.00022589385 0.0045944205
0.0095195426 -0.00024003357 0.0059298384
-0.0011572699 0.00022462956 0.0044750138
-0.016988765 0.00023445966 0.005403413
0.0099702785 8.3182691e-05 0.0020404619
-0.01967839 -0.00022410628 0.0044255932
-0.0091625601 0.00023402504 0.005362364
0.016588982 0.00021032541 0.0031240678
-0.025524028 -0.00013662293 -0.0030803671
0.024072079 -9.5309144e-05 -0.0022099407
-0.024791198 4.6198395e-05 -0.002145831
-0.015446192 0.00011468564 -0.0032379192
-0.019371023 4.5145487e-05 0.0053498922
0.016828349 0.00017122841 0.00097521517
0.025287008 -0.00020417827 0.0025434995
0.010883595 0.00024649641 0.0065402146
-0.0031454174 -0.00015046072 0.0011886143
0.021732247 0.00020588934 0.0045911414
0.0063651525 -0.00019789721 0.001950294
0.01462102 -0.00022933686 0.0049195909
0.0040271855 -0.00013827435 -0.0036807572
0.014596834 -0.00022504292 0.0045140516
0.02070915 0.00019251417 0.004965615
0.0033145922 0.00015460308 -0.0021385995
-0.026870264 -0.00017370489 -0.00033454038
0.021221604 0.00016362799 -0.001286244
0.002338815 0.00024907262 0.0067835222
-0.0099269394 -0.00024885536 0.0067630038
-0.0090994472 0.00024125881 0.0060455571
0.011065043 -0.00021206826 0.0032886649
0.0053021908 -0.00015498545 0.0014236855
0.0070917471 -0.00023902401 0.0058344882
-0.0047618966 0.00022721983 0.0047196476
0.0099819833 0.00011656641 0.0028930153
0.011094913 0.00023471564 0.0054275882
0.0070291935 0.00012916047 -0.0024086577
-0.0018460298 0.00022922736 0.0049092495
0.010376548 -0.00016278202 -0.0010789681
0.0054824888 -0.00019662124 0.0018297815
-0.017531937 -0.00017316993 0.0021708326
-0.023371378 0.00019432434 0.0016128545
-0.000479604 -0.00025447359 0.007293616
-0.022899827 0.00019565664 0.0017386784
0.0089447917 0.00017570792 -0.00014536567
0.0068294737 -0.00018464949 0.00069911388
-0.01637689 0.0002190926 0.0039520795
0.023343572 0.00014182428 -0.0015904105
0.011930537 0.00015623082 -0.0019848696
-0.0038305526 0.00016288998 0.0037280847
-0.0054394091 -0.00022893955 0.0048820674
-0.01278743 -0.00015636988 -0.0019717349
-0.010791404 -0.0002465421 0.0065445285
-0.0053160535 0.00019629289 0.0017987748
-0.012131321 0.00018242434 0.002116173
-0.00011031709 -0.0002589846 0.007719656
-0.013515146 0.00013583944 -0.0019750532
0.0046446612 -9.8690587e-05 -0.0031264734
0.026094874 -0.00019466173 0.0016447168
-0.01477296 -0.00022417733 0.0044323034
-0.015718428 -0.00010278957 0.0011775097
0.021366978 -0.00016595653 -0.0010663272
-0.01562692 -0.00020243171 0.0023785499
-0.010968545 0.00022931182 0.00491723
0.014810993 0.00024027134 0.0059522931
-0.026099797 0.00016969736 -0.00071302365
0.0027030408 0.00013017726 -0.0028568148
0.0089156292 -0.00024316383 0.0062254732
-0.012110409 0.00012133468 0.00059309974
-0.0016617136 0.00015694828 0.0043718629
-0.0039871652 0.00014712469 -0.0028448917
0.015423317 0.00022198493 0.0042252452
-0.0096331332 1.6359613e-07 0.00062665873
0.0081772599 0.00011168382 0.0017827054
0.0075303074 0.00017310034 -0.00039163604
-0.01775597 -0.00015610941 -0.0019963339
-0.0077205547 -0.00019306836 0.001494233
0.02050323 -0.00013352277 -0.0041295169
0.023924474 -0.00019667759 0.0018351009
0.016435716 0.00019483737 0.0016613049
0.014678629 0.00014002515 0.0064648497
0.0010148358 0.00013393219 -0.00095409527
0.0082446728 0.00023380874 0.0053419345
0.0048254761 -0.00015216602 -0.0023687657
-0.01633806 -0.00013541267 -0.0039510266
-0.019603945 0.00022810971 0.0048036957
-0.025730427 -0.00016529499 -0.0011288072
0.0024443709 0.00019197629 0.0013910946
-0.019175695 0.00021981438 0.0040202471
-0.0035068863 -0.00025122039 0.0069863698
0.0084838625 0.00022847446 0.0048381402
0.0035571014 0.00024020887 0.0059463955
-0.0026812938 -0.00016904646 -0.00077450275
0.0041478202 0.00024984562 0.0068565276
-0.016856631 -0.00020726133 0.0028346814
-0.012938276 0.00023182406 0.0051544928
0.0017221187 -0.00023279448 0.0052461452
-0.0063899318 -3.8663558e-05 0.0034719878
0.003860571 9.2523791e-05 0.0015416332
0.0090177124 -0.00023894574 0.0058270972
0.0084715094 -0.000175476 -0.00016726747
0.015710672 0.00018992511 0.001197373
-0.005610913 -0.00012097531 -0.00082670554
0.020494388 0.00012569031 -0.003835038
-0.024056723 0.00014780475 -0.0010914791
-0.023609471 -0.00014054029 -0.00093154598
0.024292545 -2.3950461e-05 -0.0036212748
-0.0063764025 -0.00012760622 0.00248653
0.013476612 0.00024274879 0.0061862743
-0.0041091316 -0.00016419991 -0.0012322301
-0.006849241 0.00025166111 0.007027993
0.011202195 0.00022962427 0.0049467385
0.0051036668 -0.00024380595 0.0062861177
-0.0020461059 -2.7730399e-05 0.0017366027
0.0009545685 0.00019595464 0.0034355393
0.026552925 0.0001955803 0.0017314714
0.0090320138 -0.00019702282 0.001867709
-0.025188165 0.00019218314 0.0014106274
0.0017271279 0.00018214436 0.00046252395
-0.0077837608 0.00012239603 0.00010912448
-0.021892643 0.00016808763 -0.00079433247
0.0099708382 -0.00021441421 0.0035102321
0.0081966957 0.00021073714 0.0031629507
0.015423564 0.00014457283 -0.0015898588
0.0082435431 -0.00023741733 0.0056827497
0.0074509396 0.00017816527 0.0022431063
0.0039830338 -0.00019001607 0.0012059589
-0.0041266182 0.00012615405 -0.0040529962
-0.019219572 -0.00013980526 -0.0035361713
-0.025743106 0.00010884035 -0.0028521111
0.0077519207 0.00017741941 1.6276836e-05
-0.019046063 7.0884365e-05 -0.0032285082
0.019803979 -0.00014877687 -0.0026888491
-0.004124288 0.00023132516 0.0051073758
0.014951115 -8.3713341e-05 -0.0022688285
0.0255174 -0.00016120002 -0.001515553
-0.002422709 0.00019073383 0.0013859115
-0.0053837835 0.00015653546 -0.0019560957
0.018828036 -0.00020866405 0.0029671602
-0.021410393 -0.00016097726 -0.001536594
0.0077663986 -0.00014628354 -0.0011555039
0.01128338 0.00015552802 -0.0020512447
-0.014648207 0.00016223566 0.0024422046
-0.00055181648 0.00024063028 0.0059861913
0.015849534 -0.00022868048 0.0048575988
-0.010204327 0.00023098213 0.0050749807
0.00021694995 -0.00019311493 0.0014986306
0.016053211 0.00021126244 0.0032125632
0.0010366242 -0.00025306523 0.0071606073
-0.017620984 -0.00021136933 0.0032226602
0.020738024 -0.00017846237 0.00011477768
0.0091644786 0.0001822341 0.00047099619
-0.00061516673 0.00021834469 0.003881441
-0.0043456811 -0.00024041085 0.0059654722
0.0070578079 0.00016617989 -0.0003245105
-0.0080366833 -0.00023040436 0.0050204145
-0.01536563 -0.00024068297 0.0063175028
-0.013583153 -0.00014454722 0.00297854
-0.008203282 -0.0002022816 0.0023643698
0.0077194581 -0.00016072766 -0.001560166
0.013522512 -3.5705623e-05 -0.0014384211
0.021453043 0.00012897939 -0.00067133544
-0.012552409 8.8401481e-05 -0.002234028
-0.026390716 -0.00013961493 -0.0035541451
-0.019156244 0.00020531141 0.0026505231
-0.0016699324 0.00024260688 0.0061728717
0.013461178 -0.00024623657 0.0065156757
0.02335339 -0.00016861637 -0.00081511599
0.0035846184 -0.00023709699 0.0056524947
0.017123988 0.00017492063 -0.00021971985
-0.014697694 0.00011660162 -0.0011623407
-0.0060022897 0.00020222248 0.0028731683
-0.017360773 0.0002087593 0.002976157
-0.017732812 0.00020602375 0.0027177974
0.006614489 0.00023268412 0.0052357269
0.010457428 -0.00013363657 -0.0041187694
0.013930272 -3.1538093e-05 0.0022918985
0.017169857 0.00023492858 0.0054476992
0.001976673 -0.00019307484 0.0014948458
-0.024342868 0.00017774111 4.6660247e-05
0.00015746591 -0.00025586426 0.0074249581
0.0066880882 -0.00022484046 0.0044949292
-0.0078277243 -0.00020124634 0.0033112471
0.027150117 0.00014029244 -0.0034901577
0.014227035 0.00016251839 -0.0013910398
-0.0088921143 0.00013220741 0.0021574986
0.019316392 -0.00011814758 0.0010293029
-0.027307069 0.00016030154 -0.00088392966
0.012762939 -0.00023701497 0.0056447485
0.0060836026 0.00016119507 -0.0015160205
-0.011350566 -6.5662054e-05 -0.0023088043
-0.026454791 0.00018937574 0.001245871
-0.011667671 -0.00024980417 0.0068526138
0.011308193 -0.00023820225 0.0057568788
-0.0027414651 -0.00017702735 -2.0752103e-05
0.019428277 0.00021745218 0.0053337752
0.021199144 0.00018347749 0.00058843236
0.0061760102 0.00014934884 -0.0026348312
-0.0035757839 -0.00025715891 0.0075472295
0.0058149234 -0.00025157395 0.0070197624
0.0034225483 -0.0001937747 0.0015609425
-0.01327459 0.00020300417 0.0024326162
-0.0070207068 -0.00013474435 -0.0030268037
0.011779033 -0.00020286742 0.0024196971
-0.018341703 0.00014564568 -0.002984575
-0.0032909398 0.00012987731 -0.0044738101
0.013410952 -0.00015336757 -0.0022552849
-0.0027004315 -2.5553196e-05 -0.0030468649
-0.012741734 -0.00022889407 0.0048777713
0.010232103 -0.00022036626 0.0040723691
0.017667893 -0.00021857883 0.0039035575
0.027389357 0.00017377496 -0.00032792255
-0.012767763 -0.00021803576 0.0038522654
0.020019669 0.00017216626 -0.00018889752
-0.0068295449 -0.00013934111 -0.0035800075
0.0067307353 -0.00019115483 0.0022580044
0.0048951311 0.00022683966 0.0046837446
-0.0099084442 -0.00023181969 0.0051540793
-0.014729457 0.00019548308 0.0017222863
0.0049069026 -3.7826179e-05 0.00033793331
-0.013519139 0.00017824791 9.452775e-05
-0.0017161364 -0.00023081766 0.0050594453
0.023051467 0.00020530864 0.002650257
0.011279876 0.00013371083 -0.0041117566
0.0012876696 -0.00023178523 0.0051508294
-0.016096555 6.9788889e-06 0.0018339346
0.022519574 0.00021348531 0.0034224992
-0.0056044995 0.00019257698 0.0014478223
0.0087834578 0.00024512029 0.0064102495
0.0058261394 -0.00024205781 0.0061210166
0.018591225 0.00022998336 0.0049806531
0.026423668 0.00013893536 -0.0036183281
-0.00067843636 0.00023217373 0.0051875156
-0.01541982 0.00014644714 -0.0013170268
0.022674443 -0.00019920814 0.0020740994
-0.025435623 -0.00019055665 0.0012570117
0.00060660648 -0.00020238447 0.0023740879
-0.002491683 0.00016863031 -0.00081380486
-0.011374695 0.00019339385 0.0015249708
0.0048906682 -0.0001853588 0.00076610607
0.0056937668 0.00023915611 0.0058469633
0.012135455 0.00010355998 0.0024173702
-0.016650455 -0.00021954502 0.0039948104
0.01698022 -0.00021412436 0.0034828561
-0.016433142 6.3800428e-05 0.00079236657
0.0034904112 -0.00019921179 0.0020744486
-0.019853558 -0.00017536007 -0.00017821569
-0.022738025 0.00016848653 -0.00082738441
0.0053540273 -0.00025015711 0.0068859481
0.016909853 -0.00014950091 -0.0026204705
-0.014357799 0.00022098591 0.0041308897
0.028141627 -0.00015714095 -0.0018989047
0.017617207 -0.00023847303 0.0057824552
0.00082928367 -0.00023352449 0.0053150896
0.0039900793 -0.00016399768 -0.0012513315
0.0092050023 0.00013729402 -0.001257292
-0.019752054 -0.00016505035 -0.001151909
0.027524984 0.0001356267 -0.0039308118
0.0085526574 0.00020667458 0.003670536
0.0062435195 0.00018654001 0.0008776699
0.015382309 0.00015105553 0.0014151203
-0.017633194 0.00017393839 -0.00031248617
0.020422265 -0.00012667896 0.0014182448
-0.022156263 -0.00022290889 0.0043125027
-0.013234931 -0.0001039989 0.00049575069
-0.0039846194 -0.00025103771 0.0069691176
-0.011809675 -0.00016402645 -0.00057829753
0.00047472879 0.00020139472 0.002280612
0.0089695118 0.00023009384 0.0049910825
0.0039220965 -0.00025112138 0.0069770198
0.0082013831 -0.00021516781 0.0035814
0.010491709 0.00018913894 0.0011231194
0.004729433 3.6918977e-05 -0.0044942396
0.0070543312 -0.00018794306 0.001010178
0.01278326 -0.00011794486 -0.0028409276
0.0081917178 -9.3078692e-05 0.00072973949
-0.0075384057 7.3061929e-05 -0.0041275434
0.023382047 -0.00015252674 -0.0023346946
0.006795079 -0.00023587025 0.0055366368
0.020237949 -0.00021054586 0.0031448861
0.023688694 0.00019104536 0.0013031736
-0.010426753 -0.00013036426 -0.0044278214
-0.0032449889 0.00014601627 -0.0029495757
0.014475126 -0.00024592565 0.0064863106
0.0019039518 -0.00025183687 0.0070445924
0.011697224 0.00024582632 0.0064769271
0.011188376 0.00021112979 0.0032000327
-0.018458046 -0.00021790348 0.0038397743
-0.0062679756 0.00024840835 0.0067207869
-0.015440626 -0.00021920633 0.0039628176
-0.011137619 6.0004666e-05 -0.0040702419
0.0027835283 0.00016229709 0.0030055887
-0.013167408 -0.00024403799 0.0063080327
0.022171577 0.00018594714 0.00082167244
0.012713262 0.00015741821 -0.0018727259
0.025181655 0.0001968157 0.0018481455
0.0039769155 -0.00024460015 0.006361125
-0.019115878 -0.00021034315 0.00312574
-0.00057034433 -0.00022557251 0.0045640664
-0.027352506 -0.0001572436 -0.0018892171
0.00918415 0.00024648401 0.0065390449
0.012091259 -0.00019347382 0.0015325283
0.0019325904 -0.0002377598 0.0057150889
0.014188718 0.00014105868 -0.0034177911
-0.011797982 -0.00015164709 0.00027334897
0.0055676484 0.00021870245 0.0039152284
-0.0053783939 2.203863e-06 -0.004126702
-0.020016877 0.00017544562 -0.00017013833
0.028503474 -0.00015121288 -0.0024587791
-0.027819723 -0.00018427736 0.00066397432
-0.022125559 0.00017425262 -0.00028280675
-0.018705836 0.00020689231 0.0027998271
-0.0035314113 -0.00024099386 0.0060205339
-0.0024372407 -8.2372688e-05 0.00032747656
0.0063884482 0.00024776132 0.0066596782
0.023765855 2.783194e-05 0.0037745547
-0.019299639 0.00018086645 0.0003418324
0.0069711972 0.00023425466 0.0053840554
-0.012374795 -0.00022044365 0.0040796758
0.0043529035 0.00024045356 0.005969503
-0.0070771878 -0.00015797272 0.0010870816
0.016343886 0.00014480858 -0.0030636345
0.012509186 -0.00023368302 0.0053300629
0.0032912856 -0.00014623733 -0.002928698
-0.017130906 0.00010128743 -0.00082731707
0.0061190897 0.00015502263 -0.0020989734
0.024135055 0.00019026536 0.0012295055
0.014028904 0.00023105567 0.0050819227
0.0013446545 0.00023430699 0.0053889942
0.026290318 9.8222154e-05 0.0023850056
-0.016462671 0.000235021 0.0054564271
-0.022174368 -7.1262897e-05 -0.00057505013
-0.0028597789 0.00024705613 0.0065930788
-0.0017322685 0.00014225657 -0.00076710805
0.012674438 0.00023696398 0.0056399298
0.01855786 -7.1858893e-05 -0.0017775798
-0.00059226673 -3.3139633e-05 0.00072859897
-0.0019742947 0.00020436205 0.0025608602
-0.003257761 0.00023056103 0.0050352099
-0.011087577 -0.0001344123 -0.00042544439
0.014991693 -0.00018209295 0.00068675337
0.027839093 -4.3012238e-05 -0.004209057
-0.023765946 0.00019436158 0.001616372
0.0057021887 0.00024334504 0.0062425886
-0.0014546695 -0.00024396244 0.0063008955
0.009941793 0.00021611905 0.003671245
0.01399029 -0.00016436669 -0.0012164781
0.013559391 5.1306095e-05 0.0034075545
-0.021141894 -0.00017891529 0.0014453185
-0.0040164036 -0.00015983397 -0.0016445718
-0.0091473078 0.00016026999 -0.0016033916
-0.0044885776 0.00023795187 0.0057332306
-0.026303718 -0.00016559329 -0.0011006306
0.0086133014 -0.0002470125 0.0065889591
0.00058984477 -0.00015697931 0.00055219186
-0.013227614 0.0001285973 0.0010286145
-0.010107417 -0.00022290192 0.0043118489
0.025386982 0.00014584741 -0.00026701458
0.008829602 0.00024982731 0.006854801
0.017553912 -0.00018000419 0.00057002337
0.0099368747 -0.00020246454 0.002381651
-0.018197685 0.00023342043 0.0053052632
0.019241165 -0.00016860288 -0.00081639405
0.0019841762 0.00015343499 -0.0022489203
-0.022756085 -0.00015887571 -0.0017350718
0.00045315042 -0.0002346298 0.0054194797
0.022363612 -0.00016725397 0.00436005
0.018371757 -0.00020986842 0.003080907
-0.0084252506 -0.00019572505 0.0017451423
0.021573801 -0.00020001025 0.0021498585
-0.00034375361 -0.00024110998 0.0060314974
0.0081677027 0.00024485626 0.0063853106
-0.00028746467 0.00014514668 -0.0030317032
-0.001939544 0.00013509869 -0.003980679
-0.017586779 -0.00017046393 -0.00064062892
0.00058455736 -6.4862739e-05 0.00016708166
-0.00020224258 -0.00017804708 0.0025564991
-0.0070032757 -0.00021443493 0.007455796
-0.016170278 4.5221586e-05 -0.0035357315
-0.012345339 -0.00022645644 0.0046475534
-0.0039072968 -0.00016784137 -0.00088831718
-0.014231387 -0.00014077425 -0.0022489235
-0.0034111731 -1.5548296e-05 -0.003721199
-0.010909247 0.00023743561 0.0056844759
-0.023887778 0.00021238133 0.0033182332
0.010435172 0.00014581368 -0.0029687092
0.0030022277 0.00025563585 0.0076768398
0.011895712 -0.00016523371 -0.0011345972
0.0031369585 -0.00025833229 0.0076580504
-0.0065096971 0.00023928269 0.0058589238
-0.011942493 0.00014592122 -0.0029585531
-0.0042080795 -0.00020589594 0.0027057268
-0.0089275045 -0.00018035389 0.00029341923
-0.0034338587 0.00024425678 0.0063286959
-0.017142339 4.8905982e-05 5.3091344e-06
-0.023260323 0.00016067858 0.00077740743
0.0073761367 -0.00025055348 0.006923385
-0.0088628922 -0.00023073239 0.0050513903
0.0012632392 0.00017387442 -0.00031852617
-0.011241865 0.00020894683 0.0029938631
0.0096575934 0.00012962666 -0.0011549338
-0.022628861 -0.00019890185 0.0020451732
-0.0025655627 0.00025070921 0.0069380924
0.0082297334 -0.00015621299 -0.0019865525
0.0098368628 -0.00017000984 -0.00068351609
-0.019289315 -0.00022615913 0.0046194736
-0.0092311092 -0.00017279667 0.00064429507
0.017804056 -0.00020188492 0.0023269104
0.022853309 0.00018267885 0.00051300239
-0.0074623548 0.00013368097 0.001411685
-0.010896342 0.00024615112 0.0065076044
0.0055700503 -0.00020095689 0.0022392587
-0.014713624 -0.0002079195 0.0028968374
-0.020007581 0.00013244135 -0.0010693696
-0.0062146303 0.00017501475 -0.00021082803
0.018990422 -0.00016429304 0.00082396291
0.020026764 -9.3213435e-05 0.00032783925
0.012223546 0.00019620243 0.0036190101
-0.025696708 0.00019834886 0.0020619479
0.0220879 -0.00020575132 0.0026920694
-0.021919601 0.00018996096 0.0012007604
0.017616358 -0.00022594327 0.0045990865
0.026912116 -0.00016458506 -0.001195857
-0.028032836 -0.00012417184 -0.0038487883
-0.0084749274 -0.00021171512 0.0032553142
-0.018198097 -0.0002147842 0.0035451741
-0.012516337 0.00024001491 0.0059280721
0.012081513 0.00014601403 -0.0015115382
-0.0021378675 0.00025802411 0.0076289442
-0.013994925 0.00011837803 -0.0024172089
-0.0070446501 0.00013588257 -0.0012828439
-0.0135403 0.00022569286 0.0045754332
0.010269477 -0.00022978328 0.0049617514
-0.00023125156 -0.00016528096 -2.0211637e-05
-0.010343817 3.2604901e-05 0.0013049486
-0.013605507 -0.00021541132 0.0036044049
-0.0081516011 -0.00018307289 0.0036516096
0.022858342 0.00018867046 0.001078876
-0.0047220648 -0.00017684023 -3.8424765e-05
0.019710217 -0.00016783047 0.00083922117
-0.027334573 0.00018479988 0.00079097267
0.013272282 0.00021724685 0.0037777619
0.0030505012 0.0002540469 0.0072533181
0.0033856356 -0.00020332597 0.0024630092
-0.025197318 -0.00019752084 0.001914744
-0.0049416739 0.00017815795 0.0028705618
0.0074638706 0.00022437776 0.0044512358
0.023616003 5.3061129e-05 -0.00045553996
0.0038253202 -6.6871988e-05 0.0041091428
-0.014230572 -0.00016115316 -0.001519978
-0.01588387 0.0002309424 0.005071227
0.023544384 0.00015475876 -0.0021238953
0.017987138 -0.0001364146 0.0057394509
0.0020606865 0.00015078641 0.0027985924
0.010034937 -0.00023950578 0.0058799884
0.0014978029 -0.00022817304 0.0048096776
-0.012043872 -0.00022349368 0.0043677376
-0.0068288841 -0.00016891053 -0.00078734284
0.0024582951 -7.9889127e-05 -0.0012060412
-0.026531551 0.00019939311 0.0021036621
0.0027783422 -7.3563511e-05 0.0026278691
-0.014242147 -0.00019621845 0.0017917444
-0.0011844451 0.00011956722 0.0077150818
0.0045916806 0.00024970694 0.0068434309
-0.012474931 -0.00013141239 0.0034090888
-0.0039652097 0.0002043462 0.0025593601
0.013242953 -0.00017318512 -8.8612287e-05
-0.0027540829 0.00018944505 0.0011520281
-0.0094613852 7.5210897e-05 0.0039724908
-0.0034565378 0.00025391116 0.0072404984
0.012531549 -0.00019648283 0.0018167103
-0.0027450558 0.00020674228 0.0027856545
-0.0050496277 -0.0002292375 0.004910206
0.021866135 0.00015730858 0.0011365389
0.015714644 -0.00023773155 0.0057124258
-0.0013364564 -3.9382594e-05 0.0024904802
0.0067147897 9.8061711e-05 0.0034193539
-0.017537415 -5.0021044e-05 0.001771737
-0.016121976 0.00020122917 0.0022649784
-0.018757319 0.00020228735 0.0023649144
-0.010694589 0.00020444593 0.0025687823
0.010408735 0.00011017968 -0.0034232447
0.024397651 -0.00020200404 0.0023381566
-0.0069515831 0.0001815565 0.00040700182
-0.028287096 -6.0267557e-06 -0.0033143156
-0.012137542 -0.00018491047 0.002569264
0.024485314 0.00018403676 0.0034289334
0.013207765 0.00023909868 0.0058415402
0.012062207 -0.00016971346 -0.000711506
0.0060235239 0.00019490236 0.0016674461
0.011320808 -0.00014565139 -0.0029840367
-0.013215118 -0.00020653375 0.0027659624
-0.018986903 -0.00020150056 0.0022906063
0.004571327 -2.5242985e-05 0.0022148967
0.0063965404 0.000168193 0.0039533535
0.011383248 9.9354555e-05 7.16301e-05
-0.018551385 0.00015112379 -0.0022491026
0.016329829 0.00022201374 0.0042279656
-0.014770326 -0.0002453897 0.0064451825
-0.0098851128 0.00021552121 0.0036147814
0.0045939372 4.5252134e-05 0.0005680655
-0.014263618 -0.00015077984 9.8705437e-05
-0.028381767 -0.00016995236 -0.0006889425
-0.00025742553 0.00011846916 -0.0023451049
0.025691399 0.00018482342 0.00071554421
-0.0027735364 6.5301079e-05 0.0022778301
0.025756581 0.00016063167 -0.0015692313
-0.021296706 0.00013649292 -0.0038490021
0.010673663 -3.5632886e-05 0.00083014905
0.014851563 -0.00022180883 0.0042086104
-0.0088321567 -0.00024982539 0.0068546184
0.023698458 -0.00020860269 0.0029613615
-0.015404715 0.00020770141 0.0028762396
0.00087140314 -0.00024905961 0.0067822924
0.021275746 -0.00021919723 0.0039619594
0.0207521 -0.00016541076 0.0007166118
-0.0038483881 -0.00020866336 0.0029670903
-0.01450183 -0.00021750387 0.0038020303
0.023511784 0.0002029579 0.002428245
-0.010434866 0.0001832328 0.00056531694
-0.00026337104 0.0002204357 0.0040789256
0.011961287 -0.00023292705 0.0052586664
0.0016919642 0.00011460925 0.0021685224
0.0091853626 -2.9552821e-06 -0.0026877695
0.013265616 -0.00011138771 -0.0017392929
-0.0027932918 -4.6556714e-05 0.0037167503
-0.0035023717 0.00019996155 0.002921385
0.011196792 -0.00019367308 0.0015513441
-0.00019316183 -0.00021358309 0.0034317349
-0.012758791 0.000136879 -0.0038125408
-0.025515389 0.00010254273 -0.0024511248
0.0077798078 -0.00020220797 0.0023574175
-0.0096895145 7.8780424e-05 -0.0034799608
0.0092116063 0.00014835769 -0.00077626889
-0.0010451862 6.147963e-05 -0.0031647086
-0.025834939 0.00020471384 0.0026018235
-0.0098853679 0.000147057 -0.0028512839
0.0084836343 0.00014213737 -0.0013568588
0.0031245544 -0.00023946013 0.0058756801
0.0056613702 -0.00021381251 0.0034533972
-0.023884427 0.00018478317 0.0007117457
-0.023410773 0.00017801819 7.2831135e-05
0.01449744 0.00023194736 0.0051661385
0.0020772091 -0.00018581275 0.0040020305
0.018600637 -0.00017658749 0.0013379974
0.008549436 -0.00013925131 0.0034358623
0.0093505112 0.00022940355 0.0049258927
0.0075484114 -0.00013671262 -0.0038282524
-0.025023542 -0.00015733257 -0.0018808146
-0.021160049 -0.0001791651 0.00018114976
0.0040962449 0.0002557461 0.0074137985
-0.011290082 -4.945882e-05 -0.00449424
-0.027818382 0.00013403849 -0.0040808087
0.016136019 -0.00012349425 -0.0010403211
-0.012093686 -0.00019327007 0.0015132854
-0.021918664 2.0877271e-06 -0.0026896289
-0.010385221 0.00020727165 0.0028356519
-0.013932684 -4.5860528e-05 0.0021162545
0.019702366 -0.00015726456 0.0014111468
-0.0031091033 0.00023859243 0.0057937312
-0.0073935678 -0.00022536928 0.0045448723
0.01351804 0.00017379824 -0.00032571971
0.0013291826 -0.00019650083 0.0019606957
-0.019039374 -0.00018607682 0.00083392335
0.013530801 -0.00019339753 0.0015253245
-0.003914542 -0.00019608538 0.0017791721
-0.015522736 -0.00013974206 -0.0035421408
0.012490784 0.0001047836 0.0022544079
0.0035419343 0.00025373435 0.0072238003
0.0088876188 -0.00019469214 0.0024850308
-0.0089331437 0.00022471683 0.0044832528
0.027157597 0.00017877981 0.000144758
0.0014744938 -0.00024938869 0.0068133753
0.0018419417 -0.00025873934 0.0076964931
0.0089342427 -0.00023463782 0.0054202387
-0.00056858041 -0.00024465646 0.0063664448
0.020726018 -0.00012619949 -0.0011833586
-0.0048400676 0.00024550332 0.0064464197
0.01680449 0.00014821031 0.0027128856
-0.00024405245 -0.00012044147 -0.0011572471
-0.022892948 -0.00017702534 -2.0937994e-05
-0.02623192 0.00013359515 -0.0021986428
0.014568729 -0.00021729509 0.0037823112
0.027376536 -0.0001596332 -0.0016635318
0.0020383098 0.00024628322 0.0065200841
0.011133741 -8.8735091e-05 -0.0037877932
0.001813086 0.00023193627 0.0051650926
-0.014989645 -0.00021541717 0.0036049513
0.0082082497 -0.00013821844 -0.00047438993
0.015692752 -0.00017763718 3.6847145e-05
-0.0042363033 -5.3703196e-05 0.0039360463
0.0020254937 2.9460401e-05 0.00023528322
-0.026038431 -0.00019703634 0.0018689852
-0.0054215104 -0.00014224742 -0.003305522
0.021553662 0.00020991405 0.0030852156
-0.0096777929 0.00016564941 -0.0010953353
-0.025040483 0.00014426891 -0.0015864171
-0.0198188 0.0001933905 0.0015246597
0.017838933 -0.00018627194 0.00085235026
-0.0038949542 0.00017116973 -0.00057397288
-0.0012682453 0.00017680902 -4.136905e-05
-0.020047124 7.6636468e-05 0.001810965
-0.0047200331 -0.00016099129 -0.0015352704
-0.001337273 0.00022024456 0.0040608793
-0.013091581 -0.00010867104 0.0067216107
0.023953974 0.00020080802 0.0022252011
0.013941775 -0.00011596022 0.001453965
0.013543615 0.00023640812 0.0055874307
0.012808827 -0.00010996452 -0.00097879884
-0.024083905 0.00015211705 -0.0023733887
0.023093492 -0.00021401457 0.0034724839
0.015372953 -6.7301851e-05 0.0020967547
-0.018506557 -0.00016315795 -0.0013306399
0.026519394 0.00017234626 -0.00046285422
0.0063106166 -0.00015140985 -0.002305038
-0.021898184 0.00012780125 -0.0011979712
-0.024138529 0.00015874259 -0.0017476407
0.0055281674 -0.00013402231 -0.004082338
0.011497469 0.00023314675 0.0052794134
-0.0068545397 0.0001533444 -0.0022574752
-0.0069677685 -0.0002303572 0.0050159534
-0.02515953 0.0002079871 0.0029032235
0.017321289 0.00022531873 0.0045401021
0.026200272 -0.00018878022 0.0010892416
-0.02115416 -0.00021693125 0.0037479508
-0.010482443 -0.00014624825 -0.0029276672
-0.0019292616 0.00023896307 0.0058287326
0.027924322 -0.00014172937 -0.0033544495
-0.011387585 -0.00020166657 0.0023062865
0.017724585 0.00023222006 0.0051918966
-0.015878318 -0.00021409511 0.0034800917
0.013576357 0.00019765076 0.0024834105
-0.0019365705 -0.00019959096 0.002110255
0.020005269 0.00022736168 0.0047330498
0.0091789505 1.3773315e-05 -0.0031548305
-0.01111751 -0.00013777563 -0.0026055679
-0.024431488 0.00020081298 0.0022256658
-0.027251231 -0.00017005384 -0.00067936018
0.019035544 0.00020762887 0.0028693937
0.016456868 0.00020338403 0.0025205167
-0.007454487 -0.00021323758 0.0033991002
0.0065919585 -0.00022915771 0.0049026739
-0.0091557931 -0.00021446752 0.0035152643
-0.014838118 0.0002066501 0.0027769522
0.014949067 -0.00020636724 0.0027502386
0.013494018 -0.00021025894 0.0031177935
0.026218059 0.0001675541 -0.00091544254
0.019709276 0.00020733611 0.0028417453
0.0083918357 0.0002198841 0.0040268307
0.024297476 0.00015583092 -0.0020226368
-0.022096459 -0.00019651893 0.0018201221
-0.0054029203 0.00015179309 -0.0024039873
0.01617497 -0.00014724114 -0.0028338921
-0.012673515 0.00018346167 0.00058693468
0.023545684 -0.00021292477 0.0033695586
-0.015885582 0.00022634954 0.004637457
-0.018875096 0.00021684502 0.0037398066
-0.024771718 -0.00019196801 0.0013903097
-0.028113263 0.00014845743 -0.0025411008
0.016096765 0.00020652838 0.0027654597
-0.020752784 -0.00013812441 0.00076633965
0.0070906114 -0.00019457759 0.0020647466
-0.012120428 0.0001862573 0.001322829
0.012359787 -0.00022332926 0.004352205
0.0062924353 -0.00021663465 0.0037199422
0.01643247 -3.1613461e-05 0.0028486843
-0.0044605336 0.00025223356 0.0070820563
-0.0091725262 -0.00021924186 0.0039661718
-0.0020404554 -0.00018757636 0.0013250294
-0.0034994984 -0.00012768246 0.0027120679
-0.0084770676 1.7317296e-05 0.007319747
0.017415348 0.0002135859 0.0034320003
0.020428443 -0.00016140123 0.00096818939
-0.013325033 0.00022196173 0.0042230547
-0.015413882 -0.00013318809 -0.0008845558
0.012819939 0.00017785637 5.7547539e-05
-0.023579516 0.00020971309 0.0030662345
0.028214283 0.00015391306 -0.0022037667
0.010336848 -0.00017533245 0.0018125896
-0.013098521 0.00022745912 0.0047422503
0.0092483284 -0.00020806919 0.002910977
0.02482198 -0.00019085142 0.0012848565
-0.014652784 -2.9748277e-05 0.002108902
0.012866025 -7.9188481e-05 0.0031870266
-0.013255363 -0.00020144954 0.0022857911
-0.020656146 0.00015493379 -0.0021073653
0.014692466 0.00011836243 -0.00078151905
-0.0013473093 2.8172391e-05 0.0032809717
0.0031588122 -0.00017846681 0.00021300196
0.018362321 -0.00016577062 -0.0010838857
0.023384409 -0.00019749717 0.0019125071
0.0077608232 0.00022094839 0.0041273488
0.023287905 0.00021031774 0.0031233402
-0.016084431 0.00017123942 0.0027170323
0.00028296458 -0.00022682082 0.0046819658
-0.018303564 0.00012982987 -0.0015899371
-0.012552211 0.00022815603 0.0048080697
-0.021179549 0.00013605985 -0.001297428
0.0034664269 -0.00024219672 0.0061341352
-0.027953191 0.00014057444 -0.0034404784
0.011407991 0.0001459612 0.0018737436
-0.026675463 0.00017408503 -8.2972125e-05
-0.024265256 -0.00014757749 -0.0028021254
0.020224174 0.00020508944 0.0026295572
0.026231855 -0.00012514919 -0.0021937599
-0.0067275488 0.00024305414 0.0062151155
0.0017769223 -0.00012959829 -0.0040195184
0.028001614 -0.00018217112 0.00046505107
-0.0077636852 -0.00020205053 0.0023425512
0.020716768 -0.00019890668 0.0020456275
-0.010466159 0.00018749366 0.00096773147
0.0045480859 -0.00021471996 0.003907674
-0.018287312 -0.00015714239 -0.00040608883
0.023535775 -0.00018349491 0.00059007254
-0.012616526 0.00021562666 0.0036247361
0.018598134 0.00020272515 0.00240626
0.0052629579 -0.0001092554 0.0042812438
0.013940949 -0.00019727332 0.0018913706
-0.0063412604 -0.00022974654 0.0049582873
-0.0092228223 7.6113902e-05 4.0616393e-05
-0.013949813 0.00021179656 0.0032630116
0.0052885879 0.00022622588 0.0046257768
-0.020959185 0.00020228996 0.0023651666
0.016194792 0.00013494404 -0.0039952863
0.011310009 -0.0001689801 -0.00078077009
-0.016819086 0.00022302597 0.0043235654
-0.0070367884 0.000134239 -0.0018554927
-0.0053869477 -0.000257129 0.0075444039
0.00099669187 0.00020931772 0.0030288931
0.015488016 -0.0002251049 0.0045199064
0.0092194043 -0.00016988561 -0.00020831198
-0.019918017 -0.00020030196 0.0021774087
0.004220359 8.1740094e-05 0.002774742
-0.0010096595 -0.0001883459 0.0010482217
0.0017647191 -0.00019682481 0.0018490107
0.0077789305 -0.00015361972 -0.00024273976
0.01171715 -0.00022936783 0.0049225176
-0.011374759 0.00013114748 -0.00054671272
-0.017574115 -0.00022030722 0.0040667951
-0.020129707 -0.00023141618 0.0051159733
0.0010317425 0.00015371955 -0.0021855191
-0.015097705 0.00022881899 0.004870682
0.004863908 -5.9291146e-05 -0.0027936494
-0.0034316427 0.00018129365 0.00038217945
-0.011298656 0.00017984801 0.00024564355
-0.017345702 -0.00020830767 0.002933501
-0.016164714 9.5178824e-05 -0.0031304799
0.00060211925 -1.1940812e-05 0.0014462215
0.020485992 0.00021146904 0.0032320749
-0.00097457203 -0.00023173494 0.0051460774
-0.0025352368 0.00021790261 0.003839687
-0.018145017 -0.0002248914 0.0044997423
0.018603567 0.00021828312 0.0038756288
0.02310976 -7.6549244e-05 0.00084694347
-0.012836871 -0.00015658246 0.0010636701
-0.0089703938 -0.00019024528 0.0012276063
-0.020302653 0.00020651828 0.0027645016
-0.01257786 -7.7241217e-05 -0.0040878784
0.019942261 0.00021868251 0.0039133476
0.0027615023 -0.00011107625 0.0014012988
0.021046504 -0.00020665528 0.0027774414
-0.021247789 -0.00019741115 0.0019043878
-0.022792231 -0.00017042011 -0.00064476789
-0.022138914 0.00020376928 0.0025048759
0.011428524 -0.00011756355 0.0033692052
0.0045205001 0.00010815577 0.0076143178
-0.020320961 -0.00021745991 0.003797882
-7.3829993e-05 0.00017819683 0.0044984445
0.0076709092 -0.00020639542 0.0027528983
0.0017887952 -0.00015535095 -0.0020679645
0.015385259 -0.0002032989 0.0024604483
0.012125348 0.00017758891 0.0016811051
-0.022603506 0.00015658794 -0.00012912806
0.022638768 -0.00015381674 -0.0022128643
-0.0045883614 -4.5103337e-05 0.00097418216
0.016217304 -0.00021152644 0.003237498
-0.021886161 -0.0001348213 -0.00032207332
0.019068593 -0.00017272624 -0.00042696556
0.016432455 -0.00019554484 0.0017281222
-0.0095908456 -0.00021581149 0.0037067623
0.0017682895 -0.00020332079 0.0024625193
-0.0070802197 0.00016313035 0.0013078741
0.014029282 0.0001519158 -0.0023923973
-0.012607955 -0.00020362849 0.0067981654
-0.016289141 -0.00020676163 0.0027874869
-0.011087618 0.00017581378 -0.0001353681
0.025637303 0.00019916515 0.0020700393
-0.0058038724 0.00022747877 0.0047441078
-0.0089094145 3.1949989e-05 0.00089751749
0.022193203 -0.00019019538 0.0012228966
0.015549958 -0.00021404629 0.0034754812
0.01033012 -8.0521313e-05 0.0023026189
-0.0045547718 -8.6771732e-05 0.003420698
-0.0067292429 9.6956916e-05 0.0023667077
-0.00097205414 6.9401976e-05 0.0021619541
-0.016136128 -0.00018579686 0.00080748281
0.0070491456 0.00020317781 0.0024490126
0.024442796 0.00020239239 0.0023748323
-0.0017091179 -0.00022633241 0.0046358393
-0.014757873 0.00013992056 -0.003525282
0.019014835 -0.00020050297 0.0021963899
-0.024658356 0.00020730842 0.0028391217
-0.018730208 0.00021136622 0.0032223666
0.0044064051 -0.00023082162 0.0050598239
-0.00446438 0.00024639178 0.0065303324
-0.0091126347 -0.00014724513 -0.0028335184
0.020586308 0.00021635159 0.0036932062
0.0078027849 7.3616604e-05 0.0014947125
0.0031352418 0.00012807274 0.0019297848
-0.0040668892 -0.00023010248 0.0049919025
-0.02447236 0.00019395833 0.0015782827
-0.0063552754 0.00021051025 0.003141525
0.018123591 0.00022765526 0.0047607762
0.022848831 -0.00016520098 -0.0011376867
0.02353028 0.0001963073 0.0018001313
-0.0020756877 -0.00015627821 0.0038912287
0.0063162735 -0.00018865083 0.0010770231
-0.011771288 -0.00020243776 0.0023791171
0.017063523 0.00015172723 -0.0024102065
-0.012085895 -0.00021690736 0.0037456949
-0.0010410874 0.00016417085 -0.001234976
0.0035016718 -0.00012512588 0.0028703823
0.017711012 0.00022169645 0.004197998
-0.026955983 -0.00016627263 -0.0010364741
0.027400972 0.0001572325 -0.0018902653
0.0010622448 0.00018207815 0.00045626669
-0.01331485 -0.00021164026 0.003248248
-0.00094478083 -0.00015782392 0.0041484335
-0.02747331 -0.00016608696 -0.0010540091
-0.0023647412 0.0002323732 0.0052063558
-0.00099843543 -0.00021617634 0.0036766501
-0.017099371 -0.00020158122 0.0022982259
-0.020498134 0.00013862659 -0.0036474892
0.0027237802 0.00022048719 0.0040837852
0.014303653 0.00019554583 0.0030147408
-0.0070973081 8.8415618e-05 0.0025525379
-0.00059184839 -0.00019514117 0.0016899979
-0.016816216 0.00017861323 0.0018588392
-0.017617287 -0.0002292619 0.0049125138
0.0056628399 0.00020720078 0.0029555087
-0.019396253 -0.00013225601 0.002102786
-0.012296311 0.00022249357 0.0042732805
0.015784562 -0.0002100058 0.0030938843
-0.016534356 0.00023071723 0.0050499607
0.02488759 0.00016705596 -0.00096248981
0.0034196072 -0.00016947585 -0.00073394831
0.020235227 0.00020095453 0.0022390389
-0.0097304396 -0.00022582206 0.0045876363
-0.015319071 0.00021242497 0.0033223536
-0.0052319667 0.00022750374 0.0047464613
0.00020349141 -3.2622447e-05 0.0024455728
-0.016357092 0.00022575393 0.0045812055
0.015149369 -0.00021163977 0.0032482019
-0.011406529 -0.00016879413 0.0017672012
0.005585399 0.00012156101 -0.0026850365
