ply
format ascii 1.0
comment PCL generated
element vertex 1193
property float x
property float y
property float z
element camera 0
property float view_px
property float view_py
property float view_pz
property float x_axisx
property float x_axisy
property float x_axisz
property float y_axisx
property float y_axisy
property float y_axisz
property float z_axisx
property float z_axisy
property float z_axisz
property float focal
property float scalex
property float scaley
property float centerx
property float centery
property int viewportx
property int viewporty
property float k1
property float k2
end_header
0.023056701 0.0020643275 -0.0021408505
0.013147207 0.0019775787 -0.00060193788
0.011076682 3.9136062e-06 -0.00086315395
0.013832667 0.0018653474 -0.00055908365
0.021621328 0.0017783277 -0.0024788871
0.0062897089 0.0021653543 -0.001313595
0.0011263278 0.00094367849 -0.001014088
0.025739817 0.00026556369 -0.001995554
0.011515774 0.00093602214 0.001438027
0.025554668 -1.1516547e-19 -0.001243469
0.021056209 0.0015128964 -0.00037356591
0.031406201 0.00034885516 -0.00024968036
0.010258991 0.0021653546 -0.00093925593
0.023131302 0.0021653543 -0.0014962129
0.0017425111 0.001851566 -0.0011784321
0.0018244934 -6.0381166e-19 -0.00064801791
0.0077341134 0.00072453788 -0.0021969678
0.031489622 0.0010409171 -0.00078364694
0.027064333 0.0012150306 -0.0018878151
0.031217732 0.00027923982 -0.0010340855
0.014292344 0.00097209396 0.0019503065
0.011330021 0.001903867 -0.0024565654
0.024397425 1.2625964e-05 -0.00050801999
0.0086470228 0.001313883 0.0011710046
0.023328004 7.0381888e-05 -0.00045483254
0.020458302 0.0012271517 0.0065832697
0.015041078 0.000146366 -0.0025106999
0.020128941 0.0021653543 -0.0010632765
0.03036207 0.00013334824 -0.0011135093
0.0045353868 0.00088272279 0.0004470546
0.024445126 7.2927352e-05 -0.00032539218
0.0293795 0.00058018957 0.0007033369
0.014980489 0.00034585813 -0.0026427002
0.022087429 0.0021653546 -0.0015910106
0.0078951791 0.00010943146 -0.00025992221
0.0055133654 0.0010134702 0.0039339163
0.017138703 0.0021357373 -0.0023161939
0.029994966 9.4888637e-06 -0.00090300961
0.005563017 0.0012444359 0.00028110706
0.027363339 0.00093627855 -0.0018395298
0.012442874 0.00074576755 -0.0025956971
0.01534344 0.0021530867 -0.0022423167
0.01717153 0.0010932838 0.00013447157
0.027881267 0.0021653543 -0.00020726954
0.019559201 0.00035588807 -0.002583964
0.0042095897 -5.8501113e-19 -0.00077323656
0.010371332 0.0019636089 -0.00041251787
0.011316638 0.0021495863 -0.00078999146
0.0060182284 0.00059679913 0.00020759698
0.02322231 0.00013668525 -0.0021727369
0.019028697 0.00034744668 -0.00052265421
0.0054006218 0.001008419 0.00030733147
0.0053098956 0.00099662796 0.0057933694
0.0030280659 0.0018286592 0.00067170151
0.021330789 0.0021653546 -0.0013610066
0.00096948433 0.00089275622 -0.00065409654
0.0070832665 -7.1432609e-19 -0.00083332218
0.023313139 8.4961406e-19 -0.0017421771
0.024269948 0.000794483 -0.0022565816
0.021190483 0.0021653543 -0.0017424016
0.02580677 0.0012644473 0.0034327935
0.0060292115 0.00095467299 0.0014312026
0.019545803 -1.0418068e-18 -0.0010884146
0.0025875741 0.001715857 -0.0013893418
0.02141108 7.2798039e-06 -0.0020340902
0.013801588 0.0015089418 -0.0026631139
0.017715033 0.00098272401 -0.00051529269
0.015354292 0.00023139537 -0.00062844978
0.0060328566 0.00094386417 0.00092524372
0.022615673 0.00026053726 -0.0023340157
0.014305961 0.0021653543 -0.0019560575
0.0099842055 0.00016830394 -0.00040375555
0.021554405 0.0021653546 -0.0013329509
0.01245394 0.00034872841 -0.00046882793
0.03085199 0.0021642083 1.3381696e-05
0.026493868 3.7031041e-05 -0.0016189602
0.013362085 0.00039557676 -0.0026239832
0.0051154727 0.0021234252 -0.0014902879
0.021667771 0.0010584589 -0.00032595525
0.031048266 0.00036456314 -0.0011383346
0.0063949241 -7.0078044e-19 -0.00080851745
0.019511029 0.001938121 -0.0025178108
0.024971073 0.00064826058 -0.0021688198
0.020609273 4.0329418e-19 -0.0016010912
0.023019951 7.2676089e-19 -0.0017036116
0.0009690841 0.0015350837 -0.00066026626
0.02884043 7.9593483e-05 0.00032993886
0.015176048 0.0004108111 -0.00053978781
0.018897574 0.0013160938 -0.00048887695
0.029956885 0.00062649517 0.00081778434
0.031295717 0.00048685362 0.00047723635
0.021895183 0.0014808666 -0.0024788897
0.011781994 0.00034605514 -0.002519035
0.015666088 0.0001504746 -0.00070043013
0.0042035338 0.00207183 -0.0014455672
0.0011677789 0.0018523548 0.00014650506
0.0095247421 0.00054542383 -0.00021110682
0.0011610988 0.00068064133 0.00039563194
0.023695251 0.0019166328 -0.0022286347
0.011258016 0.00028063371 -0.0024639079
0.0032415679 0.0021653543 -0.00062081672
0.0069790478 0.00020625915 -4.3839071e-05
0.013257259 1.1621819e-18 -0.001731004
0.0098219505 0.0010006635 -0.0024108274
0.0018107804 0.00013749086 0.00076942187
0.0091904914 0.0011912296 -0.00018129787
0.0085397176 0.0011957483 0.0012890627
0.015728587 1.2617885e-06 -0.0021655587
0.012198594 0.00017968641 -0.00055748009
0.018028986 -1.1193527e-19 -0.0013606307
0.011299423 0.0016297005 -0.0025338661
0.02269158 -9.0478747e-20 -0.0014480359
0.024322256 0.0020036874 -0.00022590306
0.020975187 0.0010304035 -0.002545604
0.028959112 0.0019177749 0.00052800885
0.022983599 0.001937504 -0.0022760225
0.021877335 3.8460709e-19 -0.0018211994
0.017646274 -1.0256446e-18 -0.0011239996
0.0084911641 0.002158256 -0.00060143799
0.018711433 -1.0824247e-19 -0.0013081445
0.023531076 0.00073073147 -0.0023329973
0.01858444 0.0018914925 -0.00057103956
0.0040422291 0.0017116326 0.00051500788
0.020829203 0.0015848593 -0.0003856922
0.013868543 -1.2915155e-18 -0.0011186105
0.021614656 0.0011237824 -0.0025039073
0.011916066 0.0014944526 -0.0025675555
0.01718845 0.0012234417 0.0049921996
0.016410625 0.001939734 -0.00064560946
0.030142464 0.00046929918 -0.0013424994
0.018410789 -9.3184016e-19 -0.0020048472
0.018621493 0.0013173294 -0.0026641323
0.021616042 -1.7121693e-19 -0.0011506003
0.026635077 0.0012131912 0.008531196
0.0021221801 0.0010105731 0.00089732063
0.0030263211 0.0021118242 -0.0011659492
0.0010202623 0.00083668996 -0.00085935759
0.0073795929 0.00015266261 -0.0019850612
0.020077512 0.0011765155 0.0010189188
0.028558185 0.0016295078 0.00054535491
0.0010480745 0.00062310317 -0.00091566023
0.017110372 0.0011926247 0.0067309733
0.026100338 0.0018982035 7.8236466e-05
0.0089520076 0.00016192676 -0.0021766589
0.02937158 -5.6628749e-19 -0.00050836877
0.016624555 0.0020360893 -0.0025029038
0.0098525677 0.0013357672 -0.0024135581
0.020232063 -9.4025362e-19 -0.0019825564
0.0085013667 0.0012326401 0.002812892
0.024015184 0.001475794 -0.0022884705
0.010166295 0.00045484971 -0.0024301051
0.019973427 0.0012351713 -0.00021622192
0.013597879 0.0015061913 -0.0026573958
0.024213687 0.001701967 -0.0022532812
0.012569846 0.0021653543 -0.0015535495
0.0038967284 0.0021178569 -0.0013070958
0.019372243 0.00090523827 -0.0026312307
0.020518508 0.0021653543 -0.0015444717
0.018255986 8.1904154e-06 -0.0009848706
0.013859046 0.0021653543 -0.0016070871
0.018966164 0.0021653543 -0.0010697603
0.010747978 0.0011665213 0.0074834595
0.014788389 2.3174587e-05 -0.00090557872
0.0043336079 0.0021653543 -0.00097118184
0.0098495791 5.5548331e-05 -0.00055296923
0.0023355901 0.0015743653 0.00085501885
0.0059908754 0.0016494902 0.00020861666
0.021064177 5.1187344e-05 -0.0022182069
0.020613387 0.0021475914 -0.0021579368
0.0053528449 0.0018990275 -0.0018007795
0.0097787939 0.0020341396 -0.0022120234
0.014042732 0.0014529222 -0.002667404
0.022385638 0.0007128049 -0.00026193468
0.025461208 0.0010839631 -0.002107468
0.010753291 0.0011706616 0.0071694609
0.030016869 0.00094906037 -0.0013770616
0.014348409 1.1772591e-05 -0.0022208542
0.02693785 -1.2720579e-19 -0.0013421581
0.0034698118 0.00063980161 -0.0015735367
0.0075231958 0.00216203 -0.00050916598
0.0083010308 0.0010763891 -0.0022679304
0.030205861 0.0014188988 0.00086713576
0.014958788 7.1518916e-05 -0.00079187832
0.010576548 0.0016235356 -0.0024781239
0.0014324602 0.0019324718 0.00076122879
0.0041745193 0.00020128807 -0.001559944
0.0046200925 0.0021093017 0.00011891528
0.017269915 0.0021140878 -0.00084525609
0.0087426975 0.001131371 0.00026090766
0.029051293 0.0021653543 -2.48573e-05
0.019784529 0.00055032672 -0.00044149716
0.010855609 0.001207495 0.0065532001
0.029849317 0.001778356 -0.0013854633
0.02080588 0.0021653543 -0.0015485426
0.011039288 0.00015706447 -0.0023582582
0.0073760198 0.0021653543 -0.0006821737
0.009977839 0.0005250317 -0.0024225744
0.030439906 0.0015359953 0.00091352715
0.0037444106 0.0009063473 -0.0016178807
0.0038956851 0.0015354382 0.00055035704
0.019716332 0.001896566 -0.0025387758
0.025274152 0.0012667648 0.00056765706
0.014307034 0.0010516354 0.00016304362
0.030723918 0.001926124 0.00086625881
0.0089286193 0.0021613103 -0.0018185133
0.011508907 0.0010471441 0.0005939827
0.021401579 0.0011910333 -0.0025228271
0.029262599 0.00013954878 0.00049327407
0.023972435 0.0015771613 -0.00011230627
0.021560643 -1.1773542e-19 -0.0013506464
0.023000401 1.5989212e-05 -0.001958769
0.012797711 0.0016843221 -0.0004548927
0.0092821531 0.0013823347 -0.0023626876
0.029632725 0.0017659372 -0.0014336401
0.0061785076 0.0011179813 0.00062008126
0.017157009 0.00114886 0.0060139154
0.014948147 0.0021609862 -0.0010267854
0.003850789 0.00043456681 0.00054336828
0.0063778395 0.00047402675 -0.0020182685
0.026696121 0.0012024544 0.008847476
0.007026555 0.0011054697 -0.0021084009
0.015641941 0.0012606527 -0.0026958557
0.010332528 0.0020889221 -0.0021897291
0.01150526 0.0021653543 -0.0018559482
0.0035063461 -1.2951084e-18 -6.9556358e-05
0.021279158 0.0017029855 -0.00037105041
0.019850619 0.0011409236 0.00044157685
0.019415082 0.0021631527 -0.00098659564
0.0097855404 0.00016743722 -0.00038670583
0.010131411 0.0015006644 -0.00026521066
0.022762381 0.0011735129 0.0016811858
0.026752178 0.0019632229 -0.0018114863
0.011558068 0.0021634877 -0.00090863451
0.0032035827 1.7421653e-05 -0.0011068067
0.028632732 0.0015752218 -0.0016345403
0.015919842 -8.8601445e-19 -0.0021116016
0.024867801 0.0012102161 -2.3095183e-07
0.01544295 0.00024753308 -0.0026020228
0.0060575237 0.00094884256 0.001203948
0.011716193 0.00015354049 -0.0005544927
0.0036751749 0.0016335631 0.00058820681
0.0025019897 0.0015056024 -0.0013847037
0.017627399 0.00055737176 -0.00051685184
0.0060275514 0.0021653543 -0.0013142381
0.026174646 2.6517164e-05 -0.00022137215
0.014258452 0.00089293899 0.00089579256
0.0074478718 0.0012184263 2.037786e-05
0.017645095 0.00079228001 -0.00051653711
0.021021893 0.00070853351 -0.002543109
0.020586761 -1.0465557e-18 -0.0010693806
0.013364133 0.0021518525 -0.00091660651
0.027138487 7.0374757e-05 -0.0015964046
0.031295549 0.0010161923 0.00051498582
0.014734833 -1.5407052e-19 -0.0012748039
0.031126684 0.0021276043 -0.00045697132
0.028220732 0.0010439652 0.00049159327
0.012021582 0.0012564049 -0.0025731921
0.010899264 0.0011885266 0.0060063754
0.028762348 0.0011886099 -0.0016136091
0.012469988 -1.161128e-18 -0.0010672162
0.019081477 0.00013665853 -0.00066640956
0.027719824 0.001627584 -0.0017814866
0.020420134 0.00011707477 -0.00062045874
0.014127747 0.0021551608 -0.002204933
0.026995404 -4.9533855e-19 -0.00061379635
0.0050718421 0.0019075868 -0.0017487487
0.0036342959 0.0010912661 -0.0016000986
0.0063191233 0.00070637668 -0.0020198498
0.029514512 0.0015766618 0.00073009828
0.011532842 0.0010958281 0.00086937333
0.012716377 0.0019094921 -0.0025263003
0.0023388842 0.00027444743 0.00078202446
0.029828632 0.00018051789 0.00064790365
0.0059804725 0.0011057063 -0.0019774598
0.01197654 1.9134935e-19 -0.0015297042
0.025850037 0.0021134862 -0.0017357555
0.029088583 0.0021525328 -0.0011084819
0.015868196 -1.0365707e-19 -0.0013170663
0.02675344 -5.1164517e-19 -0.0005962085
0.030894108 3.6668163e-05 0.00054406264
0.014064238 0.0021653546 -0.001645282
0.002806223 0.0007536324 -0.0014450083
0.031296603 0.001220072 0.00050965766
0.012041454 0.0019182456 -0.00049727719
0.010609172 0.0016366158 -0.00030948367
0.023975151 -4.4890906e-19 -0.00080130104
0.015829736 0.001467242 -0.002699197
0.029469088 0.00054529018 -0.0014856426
0.031174552 0.00021654756 0.00052453461
0.013601549 0.00096895534 0.008453222
0.0034555346 1.0451252e-05 -0.0011027725
0.022762354 0.0019081715 -0.0023183506
0.030504664 0.0021653543 -0.000208818
0.026043603 -6.1911217e-19 -0.00045718084
0.0052450621 0.0013873413 -0.0018602145
0.0016772745 0.0014347911 -0.0012212297
0.0083939461 0.0012536589 0.0026291332
0.01581851 0.0011537167 -0.0026989973
0.018127333 0.0021653362 -0.0010492429
0.031504508 0.0014621092 -0.00070908701
0.023921151 0.0018776401 -0.0022324852
0.019662103 0.00097978371 -0.00044803714
0.017522631 1.3170352e-05 -0.0022423125
0.01038756 0.00011648134 -0.0022470376
0.0054382104 0.001328971 -0.001891405
0.019520672 0.0020785406 -0.0023708944
0.027110334 0.0021552532 -0.00015835198
0.0018803081 0.00049675937 -0.0012554917
0.017932992 0.001382438 -0.00051141495
0.015645603 0.0021653543 -0.0016427857
0.0039708852 0.0020126556 -0.0014861141
0.020046817 0.0012730591 0.0019062576
0.020085206 0.00095422741 -0.0025931457
0.031476293 0.0011581114 -0.00039683012
0.015368991 0.00048413663 -0.00053356535
0.023156159 0.0012852572 0.0035289438
0.023659358 0.0013049131 0.0073617515
0.0074061849 0.0021653543 -0.001313962
0.016505484 8.9744564e-05 -0.00078508054
0.025074678 0.0017302937 -0.0021417502
0.021727655 0.0021467325 -0.00072301039
0.012995553 0.0014053074 -0.0026252205
0.028210385 -1.5910241e-19 -0.00099053769
0.029903565 0.0021526222 0.00035393954
0.016818289 1.6321128e-19 -0.0018680444
0.007131726 0.0013161339 5.9950609e-05
0.020458639 0.0011923822 0.0068581048
0.010614309 0.0021653546 -0.0016217416
0.020217545 0.0018132566 -0.0025472243
0.0031583582 0.0021519389 0.00024394461
0.023519237 0.00053332379 -0.002332994
0.026885143 -3.3662627e-19 -0.0010381838
0.021030944 0.001715263 -0.0003869457
0.021955801 0.0021508376 -0.002040701
0.012487573 -1.0034969e-19 -0.0013501997
0.023738701 0.0004135833 -0.0022975951
0.030418914 0.0021653546 3.4132092e-05
0.017183876 0.00063727977 -0.00052474259
0.0058339741 0.0009532831 0.002253046
0.0012792679 0.0018247749 0.00065861677
0.0078395586 0.0017402174 -0.002194749
0.01413244 0.00097656436 0.003543135
0.0010562345 0.0013925321 -0.00013340212
0.026148265 0.0021653546 -0.00046531518
0.027533276 0.0019208645 0.00028676467
0.018971954 -9.9551104e-19 -0.0020116661
0.015617508 0.0020932674 -0.00080222648
0.022992631 0.0021506737 -0.0019494841
0.028248303 0.0021653543 -0.00062098401
0.020466965 7.6802422e-19 -0.0017833551
0.0089051668 0.0019827606 -0.00029651672
0.024835251 0.0021653543 -0.0014773465
0.02069602 0.0012031576 0.0091116447
0.0089783482 -5.9015957e-20 -0.0014496765
0.0058768285 0.0021653543 -0.00041180191
0.0097557791 0.0003654389 -0.00026511415
0.019691085 0.0021653543 -0.0016687252
0.030770246 0.0006670091 -0.0012277283
0.027871927 8.5948879e-05 0.0001788107
0.0032723593 0.0021653543 -0.00041243067
0.026748471 4.2166314e-05 -0.0015904036
0.030618699 -3.7340243e-19 -0.00068551727
0.014460865 0.00092279969 0.00013148284
0.0072804904 1.8801519e-06 -0.001609016
0.0073125809 1.288691e-05 -0.00040960085
0.029625429 0.0021422105 0.00035461443
0.0060078832 0.0020300741 -0.0017905306
0.022342762 0.0015971801 -0.0024389734
0.021226881 0.0016458262 -0.0025292835
0.01496417 0.00058099302 -0.00051883125
0.030814694 0.00099036994 -0.0012189188
0.0078241499 0.0021653543 -0.0009083433
0.031272531 0.0017263585 0.00054780039
0.019816294 0.0017220182 -0.00045272117
0.024201151 0.0021553952 -0.00055300113
0.02351716 0.00015451811 -0.00032548833
0.010381515 0.00088998023 -0.0024607303
0.023766665 0.0021653546 -0.0013461448
0.0055672191 8.889928e-05 2.786762e-05
0.020612972 0.0014387001 -0.00039724293
0.023404716 0.0012656889 0.0060052569
0.028514758 8.6337577e-06 5.7152789e-05
0.02898749 0.0010986134 -0.0015772519
0.028022869 0.0021592639 -0.001231536
0.011312852 0.00098522101 0.0025478783
0.030568078 0.00019338101 -0.0011334063
0.0028205819 0.0004112219 0.0007414209
0.017238658 0.0011941274 0.00099982414
0.02500833 -3.0929439e-19 -0.00093174638
0.014928319 0.00029314362 -0.00058141979
0.020633137 5.9063153e-05 -0.0022602729
0.0041094939 -2.6638281e-19 -0.00095879904
0.0032805835 0.0021212033 -0.0011932645
0.022893425 -1.2476852e-19 -0.0013977571
0.03050711 0.0021539228 0.00046350324
0.022540893 0.0012491985 0.00022947353
0.031287491 0.00073545059 0.00054526556
0.030333158 -4.0986802e-19 -0.00065565296
0.0074111256 0.0021055879 -0.0018527129
0.008573073 2.9783976e-06 -0.00064322981
0.019649804 0.00038583126 -0.00047355352
0.025084231 0.0021653543 -0.0015284987
0.0061302898 0.0019187216 -0.0019045337
0.029944846 0.0011675414 -0.0013913378
0.011510758 0.00027294343 -0.0024742191
0.0097358292 0.00084471732 -0.00022993205
0.022334591 0.002123276 -0.00061202882
0.01950478 5.4076922e-19 -0.0016433913
0.023222387 0.0011454262 -0.0023605269
0.024255954 0.0021553587 -0.0017892868
0.024600375 0.0018050172 -6.9365255e-05
0.010075811 -6.4677924e-19 -0.0013015682
0.016168963 3.0141982e-05 -0.002332181
0.0080922488 0.00070244604 -0.0022417966
0.024946254 0.00020967227 -0.002051665
0.0090115098 0.0013194653 -0.00016533598
0.0069368039 0.00092384696 8.4349529e-05
0.02582448 0.00091779081 -0.0020619964
0.014491833 -9.0220838e-19 -0.0020503607
0.018854713 0.00020138206 -0.00061703735
0.0048331697 0.00055923942 0.0003989668
0.0049068886 0.0010623243 0.0079924446
0.015205352 -1.1306301e-19 -0.0014291639
0.029507054 0.0021653543 -0.00090438267
0.017332939 0.0021653543 -0.0020456833
0.015345107 0.00011744039 -0.0024784061
0.027816851 0.00083415664 0.00042637219
0.0021294164 0.0021145083 0.00056659355
0.0069031683 0.0020981552 -0.0001971811
0.0075996504 0.0015532721 1.3793004e-06
0.019934596 0.0021653543 -0.0015832984
0.015225623 0.0014800946 -0.0026884491
0.030394299 0.0013600048 -0.0013022484
0.0075099133 0.0021571089 -0.0016864617
0.018153828 0.0021464538 -0.0022722578
0.022308949 0.0021653543 -0.001605527
0.012494887 0.0010043449 -0.0025984757
0.018021815 0.0021653543 -0.0016188242
0.017482741 0.0018406727 -0.002634231
0.028917501 0.0021653543 -0.00040372668
0.025029914 0.001527885 -0.0021614542
0.011133804 0.0019786682 -0.0023886049
0.0066610337 0.0014081091 -0.0020626476
0.022099787 1.6092315e-05 -0.00070819602
0.0036056831 3.5013174e-05 -0.0012295661
0.031452019 0.0015234122 -0.00027438192
0.025477948 9.0261692e-06 -0.00040032409
0.015206254 0.00067540933 -0.00052313809
0.0041517108 0.00097141089 0.00050901261
0.010818115 0.00026810431 -0.0024248774
0.0083604231 0.0011432705 0.0029373989
0.024915084 0.00084135035 -0.002175828
0.0059605688 2.9530533e-05 -0.0015964387
0.011245752 0.0021653543 -0.0010672171
0.013230657 0.0021653543 -0.0013278305
0.0011242299 0.0019572277 -0.00081043405
0.0020326644 0.0021653543 -0.00059470418
0.031511914 0.00087384845 -0.00067074079
0.016477896 0.0018706835 -0.0026396755
0.0096944245 0.00056241441 -0.0023994546
0.013854316 5.0244973e-05 -0.0023395414
0.0015857795 0.0011762455 -0.0012030938
0.014286513 0.00097471348 -4.5848945e-05
0.0042265127 -5.7812413e-19 -0.00048800692
0.0030375852 0.0015801139 0.00071587029
0.0081977667 0.0020980122 -0.0019696103
0.029543143 0.001216003 0.00073577411
0.0033302349 0.0021653543 -0.00013004386
0.010113271 0.0013234387 -0.0024368081
0.016534543 0.00069356174 -0.0027012615
0.021458676 0.00094261614 -0.0025178178
0.0071373186 0.0021653543 -0.0014523035
0.0071965903 0.0015408996 5.1831401e-05
0.01251663 0.001974243 -0.002465874
0.011187 0.0011266675 0.0034716171
0.010150441 0.0021506366 -0.0020088726
0.0017907415 0.00024746472 -0.0011516324
0.026020182 -1.0466053e-19 -0.0011237903
0.030684056 -5.6370141e-19 -0.00048882724
0.02089412 0.00025708581 -0.0024668679
0.021281807 7.9411431e-05 -0.0022671565
0.019914601 0.0001287187 -0.00063226727
0.015144403 4.1003397e-05 -0.0023401787
0.018850731 0.00023974161 -0.0025626947
0.0014286042 0.0011763918 0.00088062778
0.02865118 -1.3082396e-18 -9.3781971e-05
0.020438118 5.5679425e-06 -0.00090634078
0.0089122942 0.0021653543 -0.0013296757
0.02394795 5.4504099e-19 -0.0016473802
0.017118854 0.00065653113 -0.0026908659
0.011290139 0.00010245402 -0.0023021235
0.0085092913 0.0020982623 -0.00039848458
0.019336421 0.0013920182 -0.00046543436
0.028257765 0.0019849376 0.00035395662
0.017274888 0.0016266599 -0.00052347156
0.02046936 0.00028348321 -0.00047222839
0.020604791 0.0018975029 -0.0024905959
0.0022175245 0.0021583028 -0.0008310519
0.004455328 -5.6193041e-19 -0.00064397039
0.030750651 -5.4258974e-19 0.0002645468
0.0090109194 0.00016596675 -0.00031875656
0.0026296743 0.0021072077 0.00048540163
0.0049289754 2.8393695e-05 -0.0014270709
0.0094564166 -2.7160178e-19 -0.0013552218
0.017748049 0.0021653543 -0.0019701021
0.027076829 0.0021653543 -0.00063510175
0.027663417 0.0011104937 -0.0017910708
0.0082671782 0.00031861631 -0.0022106168
0.0091928132 6.4394953e-06 -0.0018603399
0.014564128 1.7464774e-05 -0.0022679353
0.01067149 0.00088787684 -0.00031337581
0.012946077 2.7259259e-07 -0.0020825407
0.022333022 0.0019473552 -0.00038001611
0.029007368 0.0019625155 -0.0014478553
0.019198054 0.0021653543 -0.0010269593
0.030514238 0.0010395217 0.00092826149
0.022805521 0.0021327268 -0.002029256
0.026021942 0.0012058105 0.0051198555
0.019293269 0.0017111861 -0.0026239569
0.018880587 0.0021653543 -0.0019170726
0.0037769005 0.0019560074 0.00044841011
0.0069933911 0.0016245306 -0.0021041813
0.028414113 0.0021653543 -7.6093296e-05
0.0083038919 0.0020015046 -0.0021125916
0.0085422946 0.0020283386 -0.0021093409
0.028129967 0.0020729306 0.00022902818
0.022473359 0.00099096249 -0.00025411157
0.0060418425 0.001073961 0.0016034272
0.025311694 0.0021008356 -0.0018339213
0.021507025 0.0016948659 -0.00034965569
0.021833584 0.00089820719 -0.00031116785
0.02989771 0.0017247037 0.00079254142
0.02441095 0.0021134613 -0.00038039734
0.0099433335 0.0021653543 -0.0016623735
0.027335282 0.0018475496 0.00029491709
0.010828382 0.0010639707 -0.00032736774
0.011211772 0.0020899242 -0.0006294878
0.0023402984 0.0018383842 0.00080392312
0.029158155 0.00054243475 -0.0015472749
0.0058700005 -9.8526872e-20 -0.0014100991
0.029099388 0.0021653543 -0.00077229273
0.0079397233 0.0020162403 -0.00021337898
0.014251888 0.00048948044 -0.0005129872
0.02597684 2.8978928e-05 -0.00024014269
0.0037216905 0.002011328 -0.0014476252
0.0061852848 0.0010482564 0.00080723164
0.0078578247 0.00010998215 -0.0019888666
0.0052818442 -1.1797486e-19 -0.0012912628
0.025734214 0.0012658106 0.0030966627
0.003436056 0.00096626917 0.00063688605
0.0091105774 5.3702948e-05 -0.00049153669
0.013372358 0.0021653543 -0.0016898137
0.0061066477 0.0010842727 6.4491491e-05
0.011765657 0.0017090812 -0.002548306
0.0020162293 0.0021572155 -0.00079956948
0.008771888 9.5071173e-06 -0.0018461943
0.006107986 0.0011125819 0.0010567413
0.017166005 0.0012032189 0.0080990931
0.014333466 0.001001824 -0.00058338273
0.0092165405 0.0011558137 -0.0023568361
0.026041321 -3.0523766e-19 -0.00090333575
0.02274039 0.0015146442 -0.0024035119
0.026565781 0.0021653543 -0.0013571343
0.00096973404 0.0012189588 -0.00065024808
0.022434797 0.001804241 -0.0023955645
0.0013840086 9.6390235e-05 -0.00090672041
0.0023940303 0.0013679079 0.00084343483
0.010493788 0.00023591238 -0.0003971174
0.003932693 0.0021653543 -0.00085709139
0.0010955533 0.00035985594 -0.00011804885
0.019476049 0.0021653546 -0.0015305608
0.0067361128 0.00028641807 -0.0020055282
0.014420813 0.0007424216 -0.0026741307
0.013168026 0.0021653543 -0.0017814193
0.011674402 0.0010660753 0.00047145976
0.017746629 -9.4012117e-19 -0.0020155457
0.0069435635 0.0013030831 -0.0020980127
0.0044752839 0.0010773481 0.0004567602
0.031045765 1.3225588e-05 -0.00049234036
0.017211696 0.0011617215 0.0031004685
0.022328025 0.00021905225 -0.00037965074
0.024134632 0.0021653543 -0.0016058846
0.0026047209 0.00021816509 -0.0012900583
0.025518017 0.00059395446 -0.0021003576
0.013840788 0.00095975481 0.0064189006
0.0046315123 0.00042838446 0.00041646813
0.030151663 6.0373724e-05 0.00055055175
0.015933663 3.4238314e-05 -0.0023378856
0.0060957102 0.00039072914 0.00017199389
0.0072512329 0.0018421569 -0.0020853602
0.012640859 0.0021653543 -0.0019569499
0.014313516 0.00078340835 -0.00050725532
0.0036410699 0.00047709714 -0.0015926253
0.029413216 0.0018503604 -0.001441499
0.015073124 -5.7318281e-19 -0.00122115
0.012930812 0.0002366027 -0.0025229556
0.026135607 0.0021653546 -0.0010896851
0.0037032769 0.0016608278 -0.0016063288
0.019137895 0.0021653543 -0.001796211
0.023518777 0.0020131089 -0.0021666563
0.0074023339 -5.4965728e-19 -0.00068342441
0.010108675 0.0021631608 -0.00078994205
0.0051293513 0.0011298303 0.00035113777
0.030660817 0.0017459481 0.00094092614
0.017828755 0.00062539638 -0.00051326939
0.0030697717 0.0012692261 0.00070949033
0.0039510545 0.0021653546 -0.0010871178
0.025175907 0.0018860147 -0.002073708
0.020236272 9.6019177e-19 -0.0017623613
0.024848647 0.0017002011 -0.0021740359
0.0085475752 8.2082894e-05 -0.0020379375
0.025816271 0.002072775 -0.00012795196
0.020814355 0.0021502424 -0.0021270372
0.031342778 0.0010424148 0.00027671127
0.016197653 0.0021653543 -0.001087894
0.026178548 0.00030607302 0.00010552636
0.018033527 0.0021158948 -0.00083603367
0.023153618 0.0014539048 -0.0023666599
0.0080483379 0.0021653543 -0.00097159675
0.010533195 0.0012577605 0.0091816373
0.016555458 0.0013009048 -0.0027008893
0.014826933 0.0021653543 -0.0016083572
0.018090697 1.0778012e-05 -0.0022140313
0.031343699 0.001945578 -0.00030172919
0.014273102 0.0010588621 0.00078143907
0.016070051 -1.0614151e-19 -0.0013391076
0.01617483 0.00079815619 -0.00054037024
0.0090352278 4.610655e-05 -0.0020048881
0.028045785 0.0018939642 -0.0016561613
0.027710266 0.0016617917 0.00040412263
0.013076683 0.0020998558 -0.000749889
0.01788174 0.0020333189 -0.0024841484
0.021217769 0.0021653543 -0.0010826943
0.01634321 5.8975176e-19 -0.0016427351
0.0059013739 0.00095340732 0.0017234844
0.016768403 0.0012822904 -0.0026971006
0.016191151 0.00014101662 -0.002524188
0.0072788568 0.0021549917 -0.0016737463
0.020169301 0.0011966043 0.0021932665
0.023116997 0.0012420202 0.0041293423
0.031163538 0.0013971463 0.00078657805
0.025052808 -5.273965e-19 -0.00061754504
0.018208342 0.0021653543 -0.0017234266
0.02552864 5.0777424e-05 -0.0017733317
0.010565675 2.4422036e-06 -0.0019522909
0.017811442 9.1903485e-06 -0.00098518317
0.017778402 8.347907e-05 -0.00077060051
0.0028420573 0.0017202841 0.00074170704
0.0015851581 0.00024115587 0.00085092348
0.029250106 1.2700506e-05 0.0002241661
0.0072763222 0.00043110558 2.7225326e-05
0.025387466 0.0021653543 -0.00088648801
0.0059027714 0.00060515245 -0.001966425
0.019308427 0.0021653543 -0.0020594171
0.016872384 -1.1706148e-18 -0.0011212691
0.0026089137 0.0021653543 -0.00067771011
0.0079174088 0.0011702683 0.0069558658
0.0052136779 0.00034253212 -0.0018118329
0.011283698 1.524692e-05 -0.0021076421
0.026474306 0.0021653543 -0.00037626471
0.013932242 0.00092157267 0.0048456253
0.0096918531 0.00016619352 -0.0022459263
0.023704853 0.00166201 -0.0023124779
0.0098164286 0.00037432477 -0.0023806274
0.023754401 0.0021653543 -0.00084227824
0.029290441 0.0021491603 0.00025921687
0.020183904 0.0021591538 -0.0020929291
0.0039102659 0.0015433766 -0.001644664
0.025330747 0.0011301283 -6.1052822e-05
0.0084279478 0.00021245154 -0.0021657045
0.0033722622 0.0021194385 0.00030810433
0.03006964 0.0012738612 0.0008401341
0.027651262 0.0021653543 -0.0010776604
0.0032394682 0.00094970578 0.00067585334
0.0049252813 0.00017187887 0.00023384039
0.021695349 0.0015211834 -0.002496711
0.022342261 1.0880748e-05 -0.0019785066
0.027839201 0.0014030829 0.00042998124
0.011947806 0.0021653543 -0.0020251041
0.020788603 -1.9467977e-19 -0.0011626338
0.017159516 0.0012365951 0.0055975933
0.0063296356 0.0021653543 -0.0005358195
0.022073384 2.3669427e-19 -0.001549905
0.01050101 0.0010877308 -0.00029817212
0.0084195919 0.0017975583 -0.0022502244
0.0049876301 0.00091617228 -0.0018186427
0.028619034 0.00080436695 0.00055591378
0.013403519 0.0014199286 -0.0026470134
0.017165711 0.0011299938 0.0038948152
0.031429492 0.00087994186 -0.00016072864
0.0059030219 0.00043136431 0.00021153489
0.0070815128 0.0021280032 -0.001756917
0.021496706 3.8582049e-05 -0.00069522706
0.023766037 0.001324576 0.0084701842
0.017237378 0.0017608333 -0.0026707423
0.02719749 -3.7288206e-19 -0.00079450489
0.028007897 0.000476605 -0.0017268113
0.029903885 -6.2322889e-19 -0.00049273251
0.02565329 0.0010320133 -0.0020834247
0.016861096 0.0015582518 -0.002695452
0.016677311 0.001078637 -0.0026987214
0.031057222 0.0001610773 -0.0010100428
0.010591417 4.9154005e-05 -0.0021510578
0.016596328 0.0021257598 -0.00088542327
0.020444658 0.0012022041 0.0057708197
0.023289589 0.0012395502 0.0045701386
0.0037213759 0.0002090968 0.00045822826
0.026560353 0.0021653543 -0.0011498632
0.018806694 1.716831e-06 -0.0021323909
0.026466558 0.0012066918 0.0073327632
0.0096619315 9.3433907e-19 -0.0016612479
0.0036899897 -5.7376954e-19 -0.00061552646
0.015434475 0.00074952672 -0.0026921649
0.014098829 0.0017520931 -0.00052030029
0.018658379 0.00030670941 -0.0026058694
0.02668649 0.002079414 -1.2631886e-05
0.018432369 0.00030759629 -0.0026102581
0.01666064 0.0021653543 -0.0019448228
0.0022512795 0.0007665364 -0.0013350082
0.002234315 0.00013058183 0.00067629036
0.011965764 0.0021653546 -0.0018187473
0.021990063 0.00066980679 -0.00029721274
0.019120427 0.00024758224 -0.002554313
0.012972288 0.0011724764 -0.0026239776
0.0092475656 0.0021653543 -0.0016817673
0.025275175 2.436153e-05 -0.00033920622
0.024181785 0.00070466287 -8.6100823e-05
0.010391552 0.00044346528 -0.002448689
0.023744091 0.0017956496 -0.00017241439
0.010770727 1.7835555e-06 -0.00085211179
0.02060106 0.0021653543 -0.0019452334
0.02011678 0.0011635706 0.0015671835
0.0075803814 0.00059739471 -0.0021777246
0.023231348 0.0017462099 -0.00020266412
0.013418833 0.0021653543 -0.0013963972
0.015453173 0.0011730045 -0.0026924973
0.00111898 0.0003972041 7.9701065e-05
0.0082540037 2.6368933e-19 -0.0015217774
0.010606669 0.0020391019 -0.00050904247
0.0080229128 0.0005175246 -0.0022299578
0.0142527 0.0021653543 -0.0015478076
0.0023687312 0.0013366855 -0.0013582894
0.0053565665 -5.6371056e-19 -0.00049426086
0.01995049 0.0019536384 -0.0005505617
0.024376856 0.0021653543 -0.001546597
0.0047502816 -6.4226092e-19 -0.00069475436
0.010567205 0.00075769541 -0.0024772903
0.031023931 0.001591622 0.00089434703
0.025376135 0.0012725855 0.00038201516
0.021115532 0.0021591035 -0.00086495787
0.023562228 0.0021653543 -0.0013001268
0.0029351618 -1.1966827e-18 -1.5399461e-05
0.022600789 6.1777296e-19 -0.0017914573
0.016984437 0.0017108707 -0.00053972745
0.009440233 7.5775359e-19 -0.0016255943
0.026223104 0.0021653543 -0.0012934089
0.0081185969 0.00023751243 -0.00016231081
0.031145249 0.00096028281 0.00080263638
0.016247997 0.0011840709 -0.0027063591
0.014980115 0.0021653543 -0.0013074289
0.028338864 6.0589249e-05 0.00020730395
0.011442374 0.0021511142 -0.0021084612
0.020214478 0.0012050143 0.0027930134
0.0083630392 0.00091551739 -9.4175957e-05
0.0082917996 0.0011852611 0.0033170583
0.0043707551 7.1016097e-05 -0.0014411589
0.013186198 0.00039479279 -0.00048883649
0.027509293 -1.1945581e-19 -0.001249288
0.0047476189 0.0016376814 0.0004109595
0.01682407 0.0021605031 -0.0010357123
0.027350377 0.0012314337 -0.0018416229
0.030847263 0.00019775629 0.00083210238
0.025957746 0.00069652783 0.00013620037
0.010556228 0.0013179578 -0.00030309672
0.023254354 0.0013289771 0.0048151179
0.0039423411 0.00091533008 0.00054282288
0.017439114 -9.0884381e-19 -0.00201262
0.022152452 0.00037759921 -0.00031107679
0.013956897 0.00092969509 0.005044139
0.016120696 0.0020003291 -0.0025507603
0.0095168203 0.00011002473 -0.0021609357
0.019281169 0.0019200995 -0.0025439381
0.0064613828 0.00028385391 -0.001970069
0.0054797018 0.0021553258 -0.00017662789
0.025556149 0.00039111637 -0.0020727727
0.014460159 0.00089539186 -9.789881e-05
0.0020179956 0.00015445068 -0.0011216756
0.011925429 0.0016948628 -0.00040968633
0.014023419 0.0019361109 -0.0025627313
0.01644095 0.00020335548 -0.0025787295
0.0069313678 6.7830559e-05 -0.00019917476
0.02455434 0.0014389565 -3.9467592e-05
0.018489949 0.0021349706 -0.00087397348
0.0042099473 3.2798198e-05 -0.0013217294
0.022979589 0.0012900586 0.003148526
0.009616605 0.0021653546 -0.0013046963
0.027803017 0.00072514371 -0.0017685277
0.011796184 0.00099023373 -0.000208374
0.0069604823 0.0021653546 -0.0010318417
0.018726688 8.1630038e-05 -0.00075613946
0.0078860642 0.00099144783 -3.447189e-05
0.0053615286 0.0015855597 -0.0018790221
0.027909815 1.0293475e-05 -0.0012821305
0.03121962 0.00061677373 0.00070571626
0.014060228 0.0016503333 -0.0026642501
0.01366551 0.00215849 -0.00098319363
0.010906445 4.8260987e-05 -0.00066488556
0.010845446 0.0015583388 -0.00032888952
0.0029949341 0.0010312351 0.00072432449
0.029577237 0.0019437763 -0.0013518668
0.012027387 0.000244026 -0.0024804
0.02766487 0.0021653543 -0.00022908018
0.005057632 -5.5569058e-19 -0.00063049415
0.005035887 0.0014193862 -0.0018264356
0.025708983 0.0015889729 0.00010506221
0.022869479 0.0011762988 0.0023409969
0.022535086 1.4604543e-05 -0.00068072102
0.030318577 0.0020569519 0.00066120992
0.017947707 0.0021653546 -0.0020495385
0.0135313 0.0019235043 -0.0025590651
0.023344111 0.0019333691 -0.0022470569
0.005850438 -2.5542324e-19 -0.0012016417
0.025454318 0.00077082968 7.3184798e-05
0.0046987664 8.960822e-06 -5.8734531e-05
0.027543472 0.00042704318 -0.0017951999
0.025357028 0.0010986314 0.00086989446
0.024781039 0.00050928892 -0.0021883547
0.0016121392 0.0016332633 -0.0012070776
0.011360996 0.0010357021 0.0017781131
0.014854434 9.2872811e-05 -0.0024376544
0.028052421 0.0021653543 -0.00077197194
0.020177266 9.2122398e-05 -0.002342748
0.0034341824 0.0017073262 -0.0015566731
0.030819276 -4.9530226e-19 -0.00033650998
0.015072995 0.0009841529 -0.00052076729
0.021598468 3.0791628e-19 -0.0015718775
0.0049576317 6.6765583e-06 -0.00011811308
0.030020151 -9.2753933e-19 0.00027444403
0.017116649 0.0011632105 0.0062658018
0.0091383383 0.0021453311 -0.0019508631
0.013969333 0.0010299481 0.0046782908
0.0082906205 0.00042376976 -0.00010071042
0.0060173348 0.00038970474 -0.0019586731
0.0059492337 0.0002361044 0.00011840717
0.029000601 0.00065383565 0.00062823208
0.021065105 0.00088180712 -0.0003730907
0.0028592616 0.0014190876 0.00075121736
0.0068810605 -6.7924758e-19 -0.00073734624
0.0076074032 -4.7225654e-19 -0.0011967977
0.02530553 3.1668028e-19 -0.0015768306
0.023949102 0.0018726238 -0.00017910921
0.0045883027 5.0162438e-05 -0.0014252926
0.020650184 0.00096932543 -0.00039525511
0.025166836 -1.0398962e-19 -0.001133876
0.020242749 0.0011444925 0.004394237
0.017227359 0.0011731978 0.0019593544
0.0055376878 -2.9973419e-19 -0.0010939905
0.027560266 0.00023805685 0.00028612278
0.0079957619 0.0021653543 -0.00062640081
0.028448723 0.0021653543 -0.0006432776
0.013691957 0.0021653543 -0.0020265696
0.02926424 -1.6486869e-19 -0.00095098309
0.011762911 0.0013468643 -0.0025593743
0.0029697074 0.0021600972 -0.00096625387
0.014379955 0.00094947941 0.0010449192
0.019292891 4.3344716e-19 -0.0016097277
0.0027452505 0.00097485061 0.00077381649
0.030318648 0.0020393585 -0.0011123486
0.011541576 0.00025705434 -0.00046293208
0.0021079122 0.0015130618 0.00090014876
0.0024420379 0.00071374117 0.00083391886
0.031263009 0.0015003741 0.00061758485
0.027358022 0.00049588806 -0.0018343279
0.0084978016 -6.0853336e-19 -0.0009524551
0.019981651 0.00011768754 -0.0023865623
0.015378714 0.00077575946 -0.00052620639
0.028903607 0.0010989303 0.00060900726
0.010894395 0.0017724504 -0.00035523632
0.0044266004 0.0021499067 3.5128516e-05
0.012025165 0.0014583142 -0.00040567358
0.014279971 0.0010498043 0.00049416418
0.0060340799 6.5735789e-05 -8.5743042e-05
0.020403922 0.0020644206 -0.00064239057
0.028113201 -8.4294574e-19 -0.00032652155
0.012889259 -9.785314e-20 -0.0013159143
0.0041593448 0.00073111168 0.00050777977
0.030699052 0.0021653543 0.00029305971
0.021448605 0.0021184711 -0.00067939603
0.012237005 9.8285145e-19 -0.0016890889
0.01305993 9.4548171e-19 -0.0017945805
0.02751304 0.00053806859 0.00037687513
0.021066718 1.4372861e-05 -0.00080578675
0.0060772356 4.4467374e-06 -0.00031606981
0.011736505 0.0020650178 -0.00062501355
0.019948885 0.0021653543 -0.0013503813
0.025383903 0.0011488909 0.0013498249
0.0019584112 0.0019235816 -0.001180415
0.010661623 0.0021539608 -0.0020291121
0.00972642 0.0021636558 -0.00075962686
0.0050598877 -5.2819794e-19 -0.00084781344
0.0051716473 0.0021653543 -0.00063536986
0.0073846374 0.0021653543 -0.0008837519
0.02062723 0.0011954505 0.0085941814
0.024218172 0.00045389816 -0.0022514607
0.030950371 0.0021653543 -0.00054323149
0.018250786 0.0013406303 -0.00050576107
0.015453034 9.8097653e-06 -0.00099442864
0.0061617526 0.001685277 -0.0019920231
0.0097830305 -6.9601831e-19 -0.0012493571
0.0014727002 0.00050401653 0.00089907402
0.0019353294 0.002143967 0.00053256226
0.028400015 0.00088230899 0.00052054517
0.0020618844 0.0021653546 5.7702808e-05
0.011342386 0.00031753423 -0.00042238997
0.030122032 9.5494754e-05 -0.0011107983
0.0054584392 0.0021653543 -0.00063137838
0.0028874383 8.1274949e-05 0.00048132092
0.0028844282 0.0013609112 -0.00146051
0.025748478 0.0011300737 0.0027581996
0.02021957 1.7737549e-19 -0.0015302612
0.017624786 0.002106366 -0.0023784654
0.029173099 -4.2174512e-19 -0.00067365868
0.0026628359 0.0013720266 -0.0014165863
0.0091174012 -5.6964972e-19 -0.0013090702
0.01223648 0.0021653543 -0.0011969841
0.018466927 0.0021653543 -0.001521496
0.010050564 0.0019936203 -0.00040703116
0.027060285 0.00010317728 7.0484901e-05
0.0047175558 0.0010250045 0.0091906935
0.0024808706 0.0018900473 -0.0013085392
0.013742168 0.0013874006 -0.00049709028
0.0042351186 -1.2094526e-19 -0.0011211856
0.020340469 -1.0451971e-19 -0.0012363396
0.0009952432 0.00066328229 -0.00044109917
0.013379621 -1.0050283e-19 -0.0013338992
0.018146465 0.0015412492 -0.00050761702
0.0032593 -1.2413474e-18 -0.00011910393
0.011938386 0.00015414091 -0.00056557835
0.010774948 0.00069316907 -0.00032260234
0.030872395 8.5807051e-06 -0.00072205492
0.020214645 0.0012471119 0.0031325666
0.0012361419 0.0006758495 -0.0010993882
0.0016778436 2.9570378e-05 -0.00083968631
0.02705656 0.00039788496 0.00028350754
0.0043247202 0.00087065028 0.00048107404
0.015920103 0.00024141242 -0.00063082855
0.010027977 0.001178772 -0.0002559862
0.012284864 0.0018940544 -0.00049191387
0.004897892 0.0002551392 -0.0017186151
0.0089368895 0.00035384434 -0.0022936717
0.0058753742 1.1717621e-05 -0.00022752858
0.015679341 9.8142682e-06 -0.00099842076
0.0067206686 0.0021559494 -0.00036216428
0.024499144 0.0021591838 -0.0017295628
0.0060498063 0.0011227217 0.0012987306
0.016849071 0.00023667973 -0.00062932156
0.01102393 -2.4059471e-19 -0.0013308976
0.0013993935 0.00047465722 -0.0011570986
0.026325108 0.0019268494 8.7011875e-05
0.0021041941 0.0018062232 0.00086430414
0.0079844976 0.00028088363 -0.0021594814
0.019049795 0.0014553943 -0.00048074551
0.026232529 0.0011826748 0.0057685445
0.030958805 2.4369294e-05 0.00022389309
0.0028605419 -5.839542e-19 -0.00061553629
0.028055931 0.0006043092 0.00046498023
0.010260436 0.00022641312 -0.00038362457
0.0016829213 -7.6334884e-19 -0.00014516526
0.014728133 0.0021653543 -0.0018520817
0.025512287 0.00041460912 6.3627034e-05
0.022557305 0.0014271489 -0.00024662504
0.021298245 0.00078785379 -0.00035891033
0.0039001675 -6.6160842e-19 -0.00071269012
0.0042153755 0.0015829704 0.00049873156
0.02370394 0.001064735 -0.00014436619
0.0058336766 0.0021653543 -0.00065209978
0.016179204 0.00099870481 -0.000540448
0.0060548936 -2.629411e-19 -0.0012242637
0.011326031 0.0010686994 0.0033299406
0.0041903625 0.0020467138 0.00028947179
0.016762948 0.00010679637 -0.00075827405
0.0053463276 0.0021653543 -0.0011792905
0.0036301611 0.0004125571 0.00058112654
0.022092327 0.00052284868 -0.0024588634
0.0012836893 6.3209336e-05 -0.00072687614
0.020732613 0.0016744692 -0.0025519105
0.01635376 0.0021449055 -0.00093596749
0.030361781 0.0010646642 -0.0013086941
0.031316187 0.0001626186 -0.00078482187
0.014538306 0.0021653546 -0.0017347153
0.0059611527 -6.6225662e-19 -0.00081080059
0.0081171151 0.0020608199 -0.00029413414
0.012847055 1.8534243e-19 -0.0015283469
0.010928861 9.3172363e-19 -0.001669837
0.010936633 0.0019410172 -0.0024017303
0.0095475912 0.000930209 -0.0023863597
0.024389874 0.0021653543 -0.0010688258
0.0034685524 0.0015059269 -0.0015733334
0.0085303178 0.0011333117 0.0017523612
0.03030413 0.0021653543 0.00024747566
0.030925848 1.0678652e-05 1.314833e-05
0.012259474 0.00042487564 -0.00043354463
0.007135856 4.3831122e-05 -0.0017794854
0.014106068 0.0010028987 0.0037386692
0.018091401 0.00065426785 -0.0026735631
0.01246452 4.5755103e-19 -0.0015893942
0.018188909 0.00046889423 -0.0026622894
0.023698078 0.0013332408 0.0080304109
0.0070748585 0.0002403909 -0.0020179409
0.0096055856 0.0021344707 -0.00059099164
0.021126524 0.0021653543 -0.00132225
0.0025832648 0.00026661114 0.00072881381
0.0084842751 0.0012500957 -0.0022908675
0.003181587 0.0020802347 0.00042812328
0.0093850512 0.0021653543 -0.001436358
0.011643283 -1.9163483e-19 -0.0019506745
0.014054312 1.3091384e-06 -0.0010341225
0.0050596441 0.0021653543 -0.0003826452
0.0059920759 0.0010308103 0.00074643403
0.021716909 0.0016892956 -0.00033020129
0.013761677 0.0010078702 0.0069515393
0.0033117635 -2.4585739e-19 -0.00093293586
0.0019061604 0.001057033 0.0009401397
0.012243259 0.0006941309 -0.0025850339
0.03123155 0.0011436047 0.00068783609
0.016937029 0.00053155702 -0.0026928128
0.030546758 0.0007249809 -0.0012720278
0.024672512 0.0016003305 -2.4675752e-05
0.011385635 0.0010274433 0.0015585783
0.0049920483 0.0016659027 0.00036772419
0.028613379 0.00096345542 -0.0016376651
0.014569927 2.0760575e-19 -0.0015363331
0.015628217 -1.0505289e-19 -0.0013365444
0.014314176 0.00092786958 -0.00024475428
0.020470578 0.0012143538 0.0061837225
0.0021459227 1.372584e-05 0.00044703012
0.020270117 0.0011867067 0.0034971402
0.019673515 0.0012090357 -0.0026151377
0.026732573 -1.2807115e-19 -0.0013553678
0.02190968 0.0001275336 -0.0022778255
0.0041674501 0.00051930541 0.00050353259
0.0080863507 3.2751443e-05 -0.001871504
0.02286686 0.001710469 -0.0002304455
0.0030509641 0.000214022 -0.0013752711
0.0048630913 0.0010491721 0.0082116891
0.018006412 0.00039184629 -0.00053244492
0.0017599595 0.00096226181 -0.0012376194
0.0094434666 0.001911643 -0.00028973605
0.00574897 0.0004786413 -0.0019332271
0.015356208 0.0018996438 -0.0026144297
0.025856026 0.0012394279 0.0040424662
0.027737677 -1.0995303e-19 -0.001144896
0.02803571 0.00070394436 -0.0017309515
0.031490747 0.00070821558 -0.00046974682
0.0061221868 0.00089545973 -0.0019951987
0.031046612 0.00030535372 0.00081108784
0.015547879 1.4940819e-05 -0.0022662629
0.010021957 0.0017354906 -0.0024139301
0.0060413084 0.001474638 -0.001985075
0.0052599902 0.00085983967 0.00033004148
0.005323227 0.00098453753 0.0055551096
0.021448351 0.0013362607 -0.00034552359
0.020140301 0.00023867773 -0.0024929906
0.020858629 8.801114e-05 -0.0023009854
0.029764447 0.0011926774 0.00077964028
0.010622149 -3.9094823e-19 -0.0010063347
0.017116986 0.00109028 -0.00030427644
0.030227566 0.00073742354 0.00087143772
0.0076394607 0.0011170474 0.0089989649
0.023321256 0.00021326842 -0.0002955285
0.020692347 0.0021653543 -0.001042467
0.017144155 0.0011007494 0.0012008569
0.019633988 -1.0870063e-19 -0.001294435
0.022770163 0.0011463037 0.00067564932
0.015144615 0.0021537261 -0.0022339234
0.0059312796 0.001944745 0.00010926282
0.0065210229 -2.7105147e-19 -0.0010342392
0.0080295354 0.0011227477 0.0061135096
0.021325396 0.00072741421 -0.0025268965
0.027084161 0.0019441759 0.0001961197
0.028202785 0.0021653546 -0.0011411182
0.025785936 -5.3582025e-19 -0.0005860395
0.0086750938 0.00026221006 -0.0022292186
0.011446123 0.0010053234 0.0023456502
0.012204481 0.001118383 -0.0025829626
0.02046502 0.0012457408 -0.0004051463
0.029776547 -1.0543752e-18 0.00019487938
0.018057855 0.0019568501 -0.00062943914
0.01853792 4.8204808e-19 -0.0016244639
0.018637856 0.00067736726 -0.0004988747
0.023863979 0.0013318292 0.0090885684
0.011205648 0.0013560115 -0.0025296062
0.023008367 0.0021653543 -0.0012088642
0.017156025 0.0011237552 0.00345959
0.014501677 7.8739927e-19 -0.0018065231
0.027147474 0.00040549517 -0.0018562739
0.029331202 0.0016404676 0.00069155474
0.028136801 0.0021653546 -0.00030620798
0.018640095 0.0021545177 -0.0022047039
0.0058956249 0.00084249541 -0.0019652708
0.012861946 7.014261e-19 -0.0018233318
0.026576588 0.0014233005 0.00022608742
0.0062349797 0.00022690106 6.5260574e-05
0.028289732 0.001167577 -0.0016899304
0.028701933 0.00027657946 -0.0015523793
0.0090654939 0.00092342141 -0.0023433655
0.012233173 0.0015541402 -0.00041678513
0.0087191919 0.0021653543 -0.0013843946
0.026341144 0.0015220583 -0.0019973244
0.0056960718 0.00043547922 0.00024550309
0.028367421 7.5758755e-05 -0.0014074768
0.025594888 0.0015746825 -0.0020907354
0.03033434 0.00055738894 0.00089260214
0.0020640588 0.0021653543 -0.00021347926
0.0083007663 1.0401349e-05 -0.00055232161
0.029766046 0.0021653543 0.00018255779
0.021701833 5.8169549e-05 -0.00062945735
0.012367615 0.00071344664 -0.0004239667
0.016251158 0.00088591652 -0.0027063033
0.02877447 1.2055443e-05 0.00012541952
0.023369618 -4.5688509e-19 -0.00080566882
0.010543804 0.0012347961 0.0089853797
0.029072488 0.0012092507 0.00064248184
0.022859512 0.00062590418 -0.0023928888
0.011643165 0.0010363732 -0.00047587321
0.0086127901 0.0018832629 -0.0022349292
0.011627734 0.00013608023 -0.0023640422
0.01065307 0.0021653543 -0.0011131234
0.0024110982 0.0021579587 0.00034544998
0.009081848 0.0015112093 -0.00017160886
0.023310831 0.00071838562 -0.0023526398
0.005617877 0.0006391817 -0.0019204186
0.027924623 0.001114367 0.00044377591
0.015026636 0.0021653543 -0.0015832218
0.015658729 0.00070002035 -0.0026961546
0.0079913102 0.0019772772 -0.0020922003
0.011080471 0.00076333538 -0.0025229196
0.021896264 0.0019288878 -0.00040474031
0.0021748217 0.0012776224 -0.0013198528
0.022802107 0.0021653546 -0.00077783084
0.024451414 0.0021653543 -0.00088101544
0.0053380686 0.00016661405 0.00016308896
0.017158821 0.0012050167 0.0085388795
0.017222861 0.002009304 -0.0025271722
0.011218712 0.0021653546 -0.0014791855
0.020316295 0.00039915089 -0.0025614665
0.010635149 0.0018335397 -0.0024359641
0.022680109 0.0020643617 -0.0021743905
0.016578864 0.0015685055 -0.0027004729
0.025438061 0.0012617257 0.00071120437
0.011520742 0.00097002921 0.00038867543
0.017600147 0.0015014083 -0.0026823033
0.021698527 -6.9867283e-19 -0.0019458388
0.02649701 0.0011670412 0.0078290906
0.0080615375 0.0012109503 0.0054569682
0.0072799339 0.0006529566 4.1399078e-05
0.0050081238 0.00070868654 -0.0018219523
0.021929519 0.0021653543 -0.001469792
0.013063137 2.5250964e-05 -0.00084646948
0.0082598273 0.0012475691 0.0039519584
0.028749797 0.0021640018 3.9086113e-05
0.0029607997 0.0020294553 0.00053935166
0.030119892 -3.4172206e-19 -0.00073513435
0.026043661 0.00023848965 -0.0019365852
0.018464429 0.0021653543 -0.0013038693
0.01837034 0.0021639587 -0.001034455
0.0058617736 0.0011249335 0.0021558537
0.02921091 0.0013486291 -0.0015368176
0.028310789 0.0021255452 0.0001519535
0.0061010621 0.0012861551 -0.0019925544
0.022991451 0.0021653546 -0.0016474214
0.019888733 0.0012863795 0.00024734679
0.018318046 0.00099277962 -0.0026695307
0.012624404 0.0018606648 -0.00049620145
0.012384112 0.00091647881 -0.000424848
0.024435848 0.001109341 -0.0022358154
0.011568304 0.00091741176 0.0001788238
0.0086025503 0.0013049166 0.0015544073
0.023555411 0.0021653543 -0.0016354393
0.027715649 0.0020637007 0.00017430597
0.029569691 0.0021653546 0.00013388375
0.018895321 0.0021653543 -0.0017053785
0.017118091 0.0012626103 0.0025030314
0.012615071 0.0020838911 -0.00069657608
0.0050765476 0.00060001557 0.00035966479
0.013997562 0.0010312736 0.0044468255
0.0011305462 0.00080472138 0.00024149613
0.023066811 0.0012737162 -0.0023744013
0.011485625 0.00073008129 -0.0025445626
0.011637405 0.0015535986 -0.00255267
0.028861923 0.0021653543 -0.00016422376
0.029185401 0.0019335493 0.00056052406
0.0022099095 5.4929311e-05 -0.0010075647
