ply
format ascii 1.0
comment PCL generated
element vertex 308
property float x
property float y
property float z
element camera 1
property float view_px
property float view_py
property float view_pz
property float x_axisx
property float x_axisy
property float x_axisz
property float y_axisx
property float y_axisy
property float y_axisz
property float z_axisx
property float z_axisy
property float z_axisz
property float focal
property float scalex
property float scaley
property float centerx
property float centery
property int viewportx
property int viewporty
property float k1
property float k2
end_header
-0.29902193 -0.1973781 1.2410001
-0.29665813 -0.1973781 1.2410001
-0.27774763 -0.1973781 1.2410001
-0.27427429 -0.19658287 1.2360001
-0.27192003 -0.19658287 1.2360001
-0.26956573 -0.19658287 1.2360001
-0.32371432 -0.19422857 1.2360001
-0.32135999 -0.19422857 1.2360001
-0.30389336 -0.19360001 1.2320001
-0.30154669 -0.19360001 1.2320001
-0.29781714 -0.19422857 1.2360001
-0.29331145 -0.19281431 1.2270001
-0.29097432 -0.19281431 1.2270001
-0.28863716 -0.19281431 1.2270001
-0.28746668 -0.19360001 1.2320001
-0.28604573 -0.19422857 1.2360001
-0.28369144 -0.19422857 1.2360001
-0.28133717 -0.19422857 1.2360001
-0.27695146 -0.19281431 1.2270001
-0.27371904 -0.19218573 1.223
-0.27138954 -0.19218573 1.223
-0.26905999 -0.19218573 1.223
-0.26673049 -0.19218573 1.223
-0.26721144 -0.19422857 1.2360001
-0.33313146 -0.1918743 1.2360001
-0.33077714 -0.1918743 1.2360001
-0.32842287 -0.1918743 1.2360001
-0.32263908 -0.1898562 1.223
-0.32030952 -0.1898562 1.223
-0.31902003 -0.19047716 1.2270001
-0.31668288 -0.19047716 1.2270001
-0.31434572 -0.19047716 1.2270001
-0.31429717 -0.1918743 1.2360001
-0.31194288 -0.1918743 1.2360001
-0.30958858 -0.1918743 1.2360001
-0.30723429 -0.1918743 1.2360001
-0.30167335 -0.1898562 1.223
-0.29934382 -0.1898562 1.223
-0.29798576 -0.19047716 1.2270001
-0.2956486 -0.19047716 1.2270001
-0.29235527 -0.1898562 1.223
-0.29002571 -0.1898562 1.223
-0.28769621 -0.1898562 1.223
-0.28536668 -0.1898562 1.223
-0.28396291 -0.19047716 1.2270001
-0.28070763 -0.1898562 1.223
-0.27746764 -0.18923526 1.2190001
-0.27514574 -0.18923526 1.2190001
-0.27282384 -0.18923526 1.2190001
-0.27050194 -0.18923526 1.2190001
-0.26905999 -0.1898562 1.223
-0.26673049 -0.1898562 1.223
-0.26440096 -0.1898562 1.223
-0.26592857 -0.19265048 1.2410001
-0.33304289 -0.18814 1.2270001
-0.33070573 -0.18814 1.2270001
-0.32836857 -0.18814 1.2270001
-0.32603148 -0.18814 1.2270001
-0.32263908 -0.18752667 1.223
-0.32030952 -0.18752667 1.223
-0.31798002 -0.18752667 1.223
-0.31565049 -0.18752667 1.223
-0.31434572 -0.18814 1.2270001
-0.31429717 -0.18952 1.2360001
-0.31194288 -0.18952 1.2360001
-0.30958858 -0.18952 1.2360001
-0.30624002 -0.18890668 1.2320001
-0.30167335 -0.18752667 1.223
-0.29934382 -0.18752667 1.223
-0.2970143 -0.18752667 1.223
-0.29468477 -0.18752667 1.223
-0.29235527 -0.18752667 1.223
-0.29002571 -0.18752667 1.223
-0.28769621 -0.18752667 1.223
-0.28536668 -0.18752667 1.223
-0.28303716 -0.18752667 1.223
-0.28070763 -0.18752667 1.223
-0.27746764 -0.18691334 1.2190001
-0.27514574 -0.18691334 1.2190001
-0.27282384 -0.18691334 1.2190001
-0.27050194 -0.18691334 1.2190001
-0.26818001 -0.18691334 1.2190001
-0.26585811 -0.18691334 1.2190001
-0.26440096 -0.18752667 1.223
-0.26592857 -0.19028668 1.2410001
-0.33304289 -0.18580288 1.2270001
-0.33070573 -0.18580288 1.2270001
-0.32836857 -0.18580288 1.2270001
-0.32496858 -0.18519714 1.223
-0.32263908 -0.18519714 1.223
-0.32030952 -0.18519714 1.223
-0.31798002 -0.18519714 1.223
-0.31565049 -0.18519714 1.223
-0.31434572 -0.18580288 1.2270001
-0.31200862 -0.18580288 1.2270001
-0.30866191 -0.18519714 1.223
-0.30633238 -0.18519714 1.223
-0.30400285 -0.18519714 1.223
-0.30167335 -0.18519714 1.223
-0.29934382 -0.18519714 1.223
-0.2970143 -0.18519714 1.223
-0.29372096 -0.18459144 1.2190001
-0.29139906 -0.18459144 1.2190001
-0.28907716 -0.18459144 1.2190001
-0.28675526 -0.18459144 1.2190001
-0.28443336 -0.18459144 1.2190001
-0.28211144 -0.18459144 1.2190001
-0.27978954 -0.18459144 1.2190001
-0.27746764 -0.18459144 1.2190001
-0.27514574 -0.18459144 1.2190001
-0.27282384 -0.18459144 1.2190001
-0.27050194 -0.18459144 1.2190001
-0.26818001 -0.18459144 1.2190001
-0.26585811 -0.18459144 1.2190001
-0.26353619 -0.18459144 1.2190001
-0.264 -0.18656002 1.2320001
-0.33784002 -0.18481143 1.2360001
-0.33304289 -0.18346573 1.2270001
-0.33070573 -0.18346573 1.2270001
-0.32836857 -0.18346573 1.2270001
-0.32496858 -0.18286762 1.223
-0.32263908 -0.18286762 1.223
-0.32030952 -0.18286762 1.223
-0.31798002 -0.18286762 1.223
-0.31565049 -0.18286762 1.223
-0.31332093 -0.18286762 1.223
-0.31099144 -0.18286762 1.223
-0.30866191 -0.18286762 1.223
-0.30633238 -0.18286762 1.223
-0.30400285 -0.18286762 1.223
-0.30068669 -0.18226953 1.2190001
-0.29836479 -0.18226953 1.2190001
-0.29604289 -0.18226953 1.2190001
-0.29372096 -0.18226953 1.2190001
-0.29139906 -0.18226953 1.2190001
-0.28907716 -0.18226953 1.2190001
-0.28675526 -0.18226953 1.2190001
-0.28443336 -0.18226953 1.2190001
-0.28211144 -0.18226953 1.2190001
-0.27978954 -0.18226953 1.2190001
-0.27746764 -0.18226953 1.2190001
-0.27514574 -0.18226953 1.2190001
-0.27282384 -0.18226953 1.2190001
-0.27050194 -0.18226953 1.2190001
-0.26818001 -0.18226953 1.2190001
-0.26585811 -0.18226953 1.2190001
-0.26353619 -0.18226953 1.2190001
-0.26207143 -0.18286762 1.223
-0.33674669 -0.18186669 1.2320001
-0.33304289 -0.18112858 1.2270001
-0.33070573 -0.18112858 1.2270001
-0.32836857 -0.18112858 1.2270001
-0.32496858 -0.1805381 1.223
-0.32263908 -0.1805381 1.223
-0.32030952 -0.1805381 1.223
-0.31902003 -0.18112858 1.2270001
-0.31668288 -0.18112858 1.2270001
-0.31332093 -0.1805381 1.223
-0.31099144 -0.1805381 1.223
-0.30866191 -0.1805381 1.223
-0.30633238 -0.1805381 1.223
-0.30400285 -0.1805381 1.223
-0.30068669 -0.17994764 1.2190001
-0.29836479 -0.17994764 1.2190001
-0.29604289 -0.17994764 1.2190001
-0.29372096 -0.17994764 1.2190001
-0.29139906 -0.17994764 1.2190001
-0.28907716 -0.17994764 1.2190001
-0.28675526 -0.17994764 1.2190001
-0.28443336 -0.17994764 1.2190001
-0.28211144 -0.17994764 1.2190001
-0.27978954 -0.17994764 1.2190001
-0.27746764 -0.17994764 1.2190001
-0.27514574 -0.17994764 1.2190001
-0.27282384 -0.17994764 1.2190001
-0.27050194 -0.17994764 1.2190001
-0.26818001 -0.17994764 1.2190001
-0.26585811 -0.17994764 1.2190001
-0.26440096 -0.1805381 1.223
-0.26207143 -0.1805381 1.223
-0.26250288 -0.18245716 1.2360001
-0.33674669 -0.17952001 1.2320001
-0.33440003 -0.17952001 1.2320001
-0.33070573 -0.17879145 1.2270001
-0.32836857 -0.17879145 1.2270001
-0.32603148 -0.17879145 1.2270001
-0.32501337 -0.17952001 1.2320001
-0.32266667 -0.17952001 1.2320001
-0.32032001 -0.17952001 1.2320001
-0.31668288 -0.17879145 1.2270001
-0.31434572 -0.17879145 1.2270001
-0.31099144 -0.17820857 1.223
-0.30866191 -0.17820857 1.223
-0.30633238 -0.17820857 1.223
-0.30499718 -0.17879145 1.2270001
-0.30167335 -0.17820857 1.223
-0.29934382 -0.17820857 1.223
-0.2970143 -0.17820857 1.223
-0.29468477 -0.17820857 1.223
-0.29235527 -0.17820857 1.223
-0.28907716 -0.17762573 1.2190001
-0.28675526 -0.17762573 1.2190001
-0.28443336 -0.17762573 1.2190001
-0.28211144 -0.17762573 1.2190001
-0.27978954 -0.17762573 1.2190001
-0.27746764 -0.17762573 1.2190001
-0.27514574 -0.17762573 1.2190001
-0.27282384 -0.17762573 1.2190001
-0.27050194 -0.17762573 1.2190001
-0.26818001 -0.17762573 1.2190001
-0.26585811 -0.17762573 1.2190001
-0.26440096 -0.17820857 1.223
-0.26207143 -0.17820857 1.223
-0.26165336 -0.17952001 1.2320001
-0.33784002 -0.17774859 1.2360001
-0.33440003 -0.17717335 1.2320001
-0.33205336 -0.17717335 1.2320001
-0.32970667 -0.17717335 1.2320001
-0.32736003 -0.17717335 1.2320001
-0.32606858 -0.17774859 1.2360001
-0.32135999 -0.17774859 1.2360001
-0.31900573 -0.17774859 1.2360001
-0.31665143 -0.17774859 1.2360001
-0.31429717 -0.17774859 1.2360001
-0.31194288 -0.17774859 1.2360001
-0.30958858 -0.17774859 1.2360001
-0.30624002 -0.17717335 1.2320001
-0.30266002 -0.17645431 1.2270001
-0.29934382 -0.17587905 1.223
-0.2970143 -0.17587905 1.223
-0.2956486 -0.17645431 1.2270001
-0.29235527 -0.17587905 1.223
-0.29002571 -0.17587905 1.223
-0.28675526 -0.17530382 1.2190001
-0.28443336 -0.17530382 1.2190001
-0.28211144 -0.17530382 1.2190001
-0.27978954 -0.17530382 1.2190001
-0.27746764 -0.17530382 1.2190001
-0.27514574 -0.17530382 1.2190001
-0.27282384 -0.17530382 1.2190001
-0.27050194 -0.17530382 1.2190001
-0.26818001 -0.17530382 1.2190001
-0.26673049 -0.17587905 1.223
-0.26440096 -0.17587905 1.223
-0.26207143 -0.17587905 1.223
-0.26165336 -0.17717335 1.2320001
-0.30488002 -0.17539428 1.2360001
-0.30252573 -0.17539428 1.2360001
-0.30017143 -0.17539428 1.2360001
-0.29685333 -0.17482668 1.2320001
-0.29331145 -0.17411715 1.2270001
-0.29097432 -0.17411715 1.2270001
-0.28863716 -0.17411715 1.2270001
-0.28536668 -0.17354953 1.223
-0.28303716 -0.17354953 1.223
-0.28070763 -0.17354953 1.223
-0.2783781 -0.17354953 1.223
-0.27604857 -0.17354953 1.223
-0.27371904 -0.17354953 1.223
-0.27138954 -0.17354953 1.223
-0.26905999 -0.17354953 1.223
-0.26760289 -0.17411715 1.2270001
-0.26526573 -0.17411715 1.2270001
-0.26292858 -0.17411715 1.2270001
-0.26165336 -0.17482668 1.2320001
-0.30017143 -0.17304002 1.2360001
-0.29781714 -0.17304002 1.2360001
-0.2945067 -0.17248002 1.2320001
-0.29216003 -0.17248002 1.2320001
-0.28981334 -0.17248002 1.2320001
-0.2863 -0.17178002 1.2270001
-0.28396291 -0.17178002 1.2270001
-0.28162575 -0.17178002 1.2270001
-0.27928859 -0.17178002 1.2270001
-0.27695146 -0.17178002 1.2270001
-0.2746143 -0.17178002 1.2270001
-0.27227715 -0.17178002 1.2270001
-0.26994005 -0.17178002 1.2270001
-0.26869336 -0.17248002 1.2320001
-0.26634669 -0.17248002 1.2320001
-0.264 -0.17248002 1.2320001
-0.26250288 -0.17304002 1.2360001
-0.29546288 -0.17068571 1.2360001
-0.29310858 -0.17068571 1.2360001
-0.28981334 -0.17013335 1.2320001
-0.28746668 -0.17013335 1.2320001
-0.28512004 -0.17013335 1.2320001
-0.28277335 -0.17013335 1.2320001
-0.28042668 -0.17013335 1.2320001
-0.27808005 -0.17013335 1.2320001
-0.27573335 -0.17013335 1.2320001
-0.27338669 -0.17013335 1.2320001
-0.27104002 -0.17013335 1.2320001
-0.26956573 -0.17068571 1.2360001
-0.26721144 -0.17068571 1.2360001
-0.26485714 -0.17068571 1.2360001
-0.28981334 -0.16778667 1.2320001
-0.28746668 -0.16778667 1.2320001
-0.28512004 -0.16778667 1.2320001
-0.28277335 -0.16778667 1.2320001
-0.28133717 -0.16833144 1.2360001
-0.27898285 -0.16833144 1.2360001
-0.27662858 -0.16833144 1.2360001
-0.27427429 -0.16833144 1.2360001
-0.27192003 -0.16833144 1.2360001
-0.26956573 -0.16833144 1.2360001
-0.27192003 -0.16597714 1.2360001
-0.29976749 -0.16851495 1.2350882
0 0 0 1 0 0 0 1 0 0 0 1 0 0 0 0 0 308 1 0 0
