ply
format ascii 1.0
comment PCL generated
element vertex 225
property float x
property float y
property float z
property uchar red
property uchar green
property uchar blue
property uchar alpha
element camera 1
property float view_px
property float view_py
property float view_pz
property float x_axisx
property float x_axisy
property float x_axisz
property float y_axisx
property float y_axisy
property float y_axisz
property float z_axisx
property float z_axisy
property float z_axisz
property float focal
property float scalex
property float scaley
property float centerx
property float centery
property int viewportx
property int viewporty
property float k1
property float k2
end_header
-0.14666668 -0.38837335 1.2320001 0 149 125 255
-0.14901336 -0.38602668 1.2320001 0 149 125 255
-0.14666668 -0.38602668 1.2320001 0 149 125 255
-0.14478858 -0.38728002 1.2360001 0 149 125 255
-0.14243428 -0.38728002 1.2360001 0 149 125 255
-0.14008002 -0.38728002 1.2360001 0 149 125 255
-0.13772571 -0.38728002 1.2360001 0 149 125 255
-0.15308286 -0.38212287 1.2270001 0 149 125 255
-0.15074573 -0.38212287 1.2270001 0 149 125 255
-0.14901336 -0.38368005 1.2320001 0 149 125 255
-0.14666668 -0.38368005 1.2320001 0 149 125 255
-0.14478858 -0.38492572 1.2360001 0 149 125 255
-0.14243428 -0.38492572 1.2360001 0 149 125 255
-0.14008002 -0.38492572 1.2360001 0 149 125 255
-0.13828287 -0.38648286 1.2410001 0 149 125 255
-0.15840001 -0.38133335 1.2320001 0 149 125 255
-0.15605335 -0.38133335 1.2320001 0 149 125 255
-0.15308286 -0.37978575 1.2270001 0 149 125 255
-0.15074573 -0.37978575 1.2270001 0 149 125 255
-0.14901336 -0.38133335 1.2320001 0 149 125 255
-0.14714286 -0.38257143 1.2360001 0 149 125 255
-0.14478858 -0.38257143 1.2360001 0 149 125 255
-0.14243428 -0.38257143 1.2360001 0 149 125 255
-0.14008002 -0.38257143 1.2360001 0 149 125 255
-0.13828287 -0.38411906 1.2410001 0 149 125 255
-0.13591906 -0.38411906 1.2410001 0 149 125 255
-0.15840001 -0.37898669 1.2320001 0 149 125 255
-0.15605335 -0.37898669 1.2320001 0 149 125 255
-0.15370668 -0.37898669 1.2320001 0 149 125 255
-0.15136001 -0.37898669 1.2320001 0 149 125 255
-0.14901336 -0.37898669 1.2320001 0 149 125 255
-0.14714286 -0.38021716 1.2360001 0 149 125 255
-0.14478858 -0.38021716 1.2360001 0 149 125 255
-0.14243428 -0.38021716 1.2360001 0 149 125 255
-0.14008002 -0.38021716 1.2360001 0 149 125 255
-0.13828287 -0.38175526 1.2410001 0 149 125 255
-0.13591906 -0.38175526 1.2410001 0 149 125 255
-0.15840001 -0.37664005 1.2320001 0 149 125 255
-0.15605335 -0.37664005 1.2320001 0 149 125 255
-0.15370668 -0.37664005 1.2320001 0 149 125 255
-0.15136001 -0.37664005 1.2320001 0 149 125 255
-0.14901336 -0.37664005 1.2320001 0 149 125 255
-0.14714286 -0.37786287 1.2360001 0 149 125 255
-0.14478858 -0.37786287 1.2360001 0 149 125 255
-0.14243428 -0.37786287 1.2360001 0 149 125 255
-0.14008002 -0.37786287 1.2360001 0 149 125 255
-0.13828287 -0.37939143 1.2410001 0 149 125 255
-0.13591906 -0.37939143 1.2410001 0 149 125 255
-0.13506192 -0.38367146 1.2550001 0 149 125 255
-0.15605335 -0.37429336 1.2320001 0 149 125 255
-0.15370668 -0.37429336 1.2320001 0 149 125 255
-0.15136001 -0.37429336 1.2320001 0 149 125 255
-0.14901336 -0.37429336 1.2320001 0 149 125 255
-0.14714286 -0.37550861 1.2360001 0 149 125 255
-0.14478858 -0.37550861 1.2360001 0 149 125 255
-0.14243428 -0.37550861 1.2360001 0 149 125 255
-0.14064667 -0.37702763 1.2410001 0 149 125 255
-0.13872856 -0.37824285 1.245 0 149 125 255
-0.13635714 -0.37824285 1.245 0 149 125 255
-0.13506192 -0.38128099 1.2550001 0 149 125 255
-0.15605335 -0.37194669 1.2320001 0 149 125 255
-0.15370668 -0.37194669 1.2320001 0 149 125 255
-0.15136001 -0.37194669 1.2320001 0 149 125 255
-0.14901336 -0.37194669 1.2320001 0 149 125 255
-0.14714286 -0.37315428 1.2360001 0 149 125 255
-0.14478858 -0.37315428 1.2360001 0 149 125 255
-0.14301048 -0.3746638 1.2410001 0 149 125 255
-0.14064667 -0.3746638 1.2410001 0 149 125 255
-0.13872856 -0.37587142 1.245 0 149 125 255
-0.13690476 -0.37738094 1.25 0 149 125 255
-0.13452381 -0.37738094 1.25 0 149 125 255
-0.13267143 -0.37889048 1.2550001 0 149 125 255
-0.15605335 -0.36960003 1.2320001 0 149 125 255
-0.15370668 -0.36960003 1.2320001 0 149 125 255
-0.15136001 -0.36960003 1.2320001 0 149 125 255
-0.14901336 -0.36960003 1.2320001 0 149 125 255
-0.14714286 -0.37080002 1.2360001 0 149 125 255
-0.14478858 -0.37080002 1.2360001 0 149 125 255
-0.14301048 -0.3723 1.2410001 0 149 125 255
-0.14064667 -0.3723 1.2410001 0 149 125 255
-0.13872856 -0.37349999 1.245 0 149 125 255
-0.13635714 -0.37349999 1.245 0 149 125 255
-0.13452381 -0.375 1.25 0 149 125 255
-0.13267143 -0.37650004 1.2550001 0 149 125 255
-0.15605335 -0.36725336 1.2320001 0 149 125 255
-0.15370668 -0.36725336 1.2320001 0 149 125 255
-0.15136001 -0.36725336 1.2320001 0 149 125 255
-0.14901336 -0.36725336 1.2320001 0 149 125 255
-0.14666668 -0.36725336 1.2320001 0 149 125 255
-0.14478858 -0.36844572 1.2360001 0 149 125 255
-0.14243428 -0.36844572 1.2360001 0 149 125 255
-0.14008002 -0.36844572 1.2360001 0 149 125 255
-0.13828287 -0.3699362 1.2410001 0 149 125 255
-0.13635714 -0.37112856 1.245 0 149 125 255
-0.13398571 -0.37112856 1.245 0 149 125 255
-0.13214286 -0.37261903 1.25 0 149 125 255
-0.15605335 -0.3649067 1.2320001 0 149 125 255
-0.15370668 -0.3649067 1.2320001 0 149 125 255
-0.15136001 -0.3649067 1.2320001 0 149 125 255
-0.14901336 -0.3649067 1.2320001 0 149 125 255
-0.14666668 -0.3649067 1.2320001 0 149 125 255
-0.14432001 -0.3649067 1.2320001 0 149 125 255
-0.14243428 -0.36609146 1.2360001 0 149 125 255
-0.14008002 -0.36609146 1.2360001 0 149 125 255
-0.13828287 -0.3675724 1.2410001 0 149 125 255
-0.13635714 -0.36875716 1.245 0 149 125 255
-0.13398571 -0.36875716 1.245 0 149 125 255
-0.13214286 -0.3702381 1.25 0 149 125 255
-0.15370668 -0.36256003 1.2320001 0 149 125 255
-0.15136001 -0.36256003 1.2320001 0 149 125 255
-0.14901336 -0.36256003 1.2320001 0 149 125 255
-0.14666668 -0.36256003 1.2320001 0 149 125 255
-0.14432001 -0.36256003 1.2320001 0 149 125 255
-0.14243428 -0.36373714 1.2360001 0 149 125 255
-0.14008002 -0.36373714 1.2360001 0 149 125 255
-0.13828287 -0.3652086 1.2410001 0 149 125 255
-0.13690476 -0.36785713 1.25 0 149 125 255
-0.13452381 -0.36785713 1.25 0 149 125 255
-0.13267143 -0.36932862 1.2550001 0 149 125 255
-0.15420572 -0.36138287 1.2360001 0 149 125 255
-0.15185143 -0.36138287 1.2360001 0 149 125 255
-0.14949715 -0.36138287 1.2360001 0 149 125 255
-0.14714286 -0.36138287 1.2360001 0 149 125 255
-0.14478858 -0.36138287 1.2360001 0 149 125 255
-0.14243428 -0.36138287 1.2360001 0 149 125 255
-0.14008002 -0.36138287 1.2360001 0 149 125 255
-0.13828287 -0.36284479 1.2410001 0 149 125 255
-0.13690476 -0.36547619 1.25 0 149 125 255
-0.13452381 -0.36547619 1.25 0 149 125 255
-0.13267143 -0.36693811 1.2550001 0 149 125 255
-0.15420572 -0.35902858 1.2360001 0 149 125 255
-0.15185143 -0.35902858 1.2360001 0 149 125 255
-0.14949715 -0.35902858 1.2360001 0 149 125 255
-0.14714286 -0.35902858 1.2360001 0 149 125 255
-0.14478858 -0.35902858 1.2360001 0 149 125 255
-0.14243428 -0.35902858 1.2360001 0 149 125 255
-0.14008002 -0.35902858 1.2360001 0 149 125 255
-0.13828287 -0.36048096 1.2410001 0 149 125 255
-0.13690476 -0.36309522 1.25 0 149 125 255
-0.13452381 -0.36309522 1.25 0 149 125 255
-0.13267143 -0.36454764 1.2550001 0 149 125 255
-0.13214953 -0.36977619 1.273 0 149 125 255
-0.15482953 -0.35811716 1.2410001 0 149 125 255
-0.15185143 -0.35667431 1.2360001 0 149 125 255
-0.14949715 -0.35667431 1.2360001 0 149 125 255
-0.14714286 -0.35667431 1.2360001 0 149 125 255
-0.14478858 -0.35667431 1.2360001 0 149 125 255
-0.14243428 -0.35667431 1.2360001 0 149 125 255
-0.14008002 -0.35667431 1.2360001 0 149 125 255
-0.13828287 -0.35811716 1.2410001 0 149 125 255
-0.13635714 -0.35927144 1.245 0 149 125 255
-0.13452381 -0.36071429 1.25 0 149 125 255
-0.13267143 -0.3621572 1.2550001 0 149 125 255
-0.13214953 -0.36735141 1.273 0 149 125 255
-0.15532857 -0.35689998 1.245 0 149 125 255
-0.15246572 -0.35575333 1.2410001 0 149 125 255
-0.15010192 -0.35575333 1.2410001 0 149 125 255
-0.1477381 -0.35575333 1.2410001 0 149 125 255
-0.14537428 -0.35575333 1.2410001 0 149 125 255
-0.14301048 -0.35575333 1.2410001 0 149 125 255
-0.1411 -0.35689998 1.245 0 149 125 255
-0.13872856 -0.35689998 1.245 0 149 125 255
-0.13635714 -0.35689998 1.245 0 149 125 255
-0.13506192 -0.35976669 1.2550001 0 149 125 255
-0.13362285 -0.36234668 1.2640001 0 149 125 255
-0.15595238 -0.35595238 1.25 0 149 125 255
-0.15246572 -0.35338953 1.2410001 0 149 125 255
-0.15010192 -0.35338953 1.2410001 0 149 125 255
-0.14821428 -0.35452858 1.245 0 149 125 255
-0.14584285 -0.35452858 1.245 0 149 125 255
-0.14347143 -0.35452858 1.245 0 149 125 255
-0.14166667 -0.35595238 1.25 0 149 125 255
-0.13928571 -0.35595238 1.25 0 149 125 255
-0.13690476 -0.35595238 1.25 0 149 125 255
-0.13506192 -0.35737622 1.2550001 0 149 125 255
-0.13404572 -0.36107808 1.268 0 149 125 255
-0.13266858 -0.36392576 1.2780001 0 149 125 255
-0.15295714 -0.35215715 1.245 0 149 125 255
-0.15058571 -0.35215715 1.245 0 149 125 255
-0.14880952 -0.35357141 1.25 0 149 125 255
-0.14642857 -0.35357141 1.25 0 149 125 255
-0.14462382 -0.35498574 1.2550001 0 149 125 255
-0.14223334 -0.35498574 1.2550001 0 149 125 255
-0.13984287 -0.35498574 1.2550001 0 149 125 255
-0.13789047 -0.35611713 1.2590001 0 149 125 255
-0.13603048 -0.35753146 1.2640001 0 149 125 255
-0.13404572 -0.35866287 1.268 0 149 125 255
-0.13266858 -0.36149147 1.2780001 0 149 125 255
-0.1302343 -0.36149147 1.2780001 0 149 125 255
-0.15578286 -0.3562476 1.268 0 149 125 255
-0.15227905 -0.35371909 1.2590001 0 149 125 255
-0.14940478 -0.35259527 1.2550001 0 149 125 255
-0.1470143 -0.35259527 1.2550001 0 149 125 255
-0.14462382 -0.35259527 1.2550001 0 149 125 255
-0.14223334 -0.35259527 1.2550001 0 149 125 255
-0.14028858 -0.35371909 1.2590001 0 149 125 255
-0.13843809 -0.35512382 1.2640001 0 149 125 255
-0.13603048 -0.35512382 1.2640001 0 149 125 255
-0.13404572 -0.3562476 1.268 0 149 125 255
-0.13266858 -0.35905719 1.2780001 0 149 125 255
-0.1302343 -0.35905719 1.2780001 0 149 125 255
-0.15288381 -0.35271621 1.2640001 0 149 125 255
-0.14988096 -0.35132098 1.2590001 0 149 125 255
-0.14748287 -0.35132098 1.2590001 0 149 125 255
-0.14508477 -0.35132098 1.2590001 0 149 125 255
-0.14268668 -0.35132098 1.2590001 0 149 125 255
-0.14084572 -0.35271621 1.2640001 0 149 125 255
-0.1388762 -0.35383236 1.268 0 149 125 255
-0.13646095 -0.35383236 1.268 0 149 125 255
-0.13457428 -0.35522762 1.273 0 149 125 255
-0.13266858 -0.3566229 1.2780001 0 149 125 255
-0.1302343 -0.3566229 1.2780001 0 149 125 255
-0.15397239 -0.35280284 1.273 0 149 125 255
-0.15095238 -0.35141715 1.268 0 149 125 255
-0.14853714 -0.35141715 1.268 0 149 125 255
-0.1461219 -0.35141715 1.268 0 149 125 255
-0.14370666 -0.35141715 1.268 0 149 125 255
-0.14184856 -0.35280284 1.273 0 149 125 255
-0.13942382 -0.35280284 1.273 0 149 125 255
-0.13699904 -0.35280284 1.273 0 149 125 255
-0.13510287 -0.35418862 1.2780001 0 149 125 255
-0.15397239 -0.3503781 1.273 0 149 125 255
-0.15154761 -0.3503781 1.273 0 149 125 255
-0.14912285 -0.3503781 1.273 0 149 125 255
-0.1466981 -0.3503781 1.273 0 149 125 255
0 0 0 1 0 0 0 1 0 0 0 1 0 0 0 0 0 225 1 0 0
