ply
format ascii 1.0
comment PCL generated
element vertex 204
property float x
property float y
property float z
property uchar red
property uchar green
property uchar blue
property uchar alpha
element camera 1
property float view_px
property float view_py
property float view_pz
property float x_axisx
property float x_axisy
property float x_axisz
property float y_axisx
property float y_axisy
property float y_axisz
property float z_axisx
property float z_axisy
property float z_axisz
property float focal
property float scalex
property float scaley
property float centerx
property float centery
property int viewportx
property int viewporty
property float k1
property float k2
end_header
-0.053400956 -0.31472477 1.1930001 158 147 0 255
-0.051128577 -0.31472477 1.1930001 158 147 0 255
-0.048856195 -0.31472477 1.1930001 158 147 0 255
-0.046583813 -0.31472477 1.1930001 158 147 0 255
-0.04431143 -0.31472477 1.1930001 158 147 0 255
-0.042497143 -0.31815431 1.2060001 158 147 0 255
-0.040200002 -0.31815431 1.2060001 158 147 0 255
-0.053400956 -0.31245238 1.1930001 158 147 0 255
-0.051128577 -0.31245238 1.1930001 158 147 0 255
-0.048856195 -0.31245238 1.1930001 158 147 0 255
-0.046583813 -0.31245238 1.1930001 158 147 0 255
-0.04431143 -0.31245238 1.1930001 158 147 0 255
-0.042497143 -0.31585717 1.2060001 158 147 0 255
-0.040200002 -0.31585717 1.2060001 158 147 0 255
-0.073140003 -0.31694001 1.2190001 158 147 0 255
-0.070818104 -0.31694001 1.2190001 158 147 0 255
-0.068496197 -0.31694001 1.2190001 158 147 0 255
-0.065902859 -0.31564003 1.2140001 158 147 0 255
-0.063380957 -0.31460002 1.21 158 147 0 255
-0.061076194 -0.31460002 1.21 158 147 0 255
-0.058771431 -0.31460002 1.21 158 147 0 255
-0.056466665 -0.31460002 1.21 158 147 0 255
-0.053580001 -0.31121999 1.197 158 147 0 255
-0.0513 -0.31121999 1.197 158 147 0 255
-0.048856195 -0.31018001 1.1930001 158 147 0 255
-0.046583813 -0.31018001 1.1930001 158 147 0 255
-0.04431143 -0.31018001 1.1930001 158 147 0 255
-0.042497143 -0.31356004 1.2060001 158 147 0 255
-0.040200002 -0.31356004 1.2060001 158 147 0 255
-0.073140003 -0.31461811 1.2190001 158 147 0 255
-0.070818104 -0.31461811 1.2190001 158 147 0 255
-0.068496197 -0.31461811 1.2190001 158 147 0 255
-0.065902859 -0.31332764 1.2140001 158 147 0 255
-0.063380957 -0.31229523 1.21 158 147 0 255
-0.061076194 -0.31229523 1.21 158 147 0 255
-0.058771431 -0.31229523 1.21 158 147 0 255
-0.056466665 -0.31229523 1.21 158 147 0 255
-0.054161906 -0.31229523 1.21 158 147 0 255
-0.051514287 -0.31023046 1.202 158 147 0 255
-0.04922476 -0.31023046 1.202 158 147 0 255
-0.046739999 -0.30893999 1.197 158 147 0 255
-0.044460002 -0.30893999 1.197 158 147 0 255
-0.042779051 -0.31332764 1.2140001 158 147 0 255
-0.073140003 -0.31229621 1.2190001 158 147 0 255
-0.070818104 -0.31229621 1.2190001 158 147 0 255
-0.068496197 -0.31229621 1.2190001 158 147 0 255
-0.066174291 -0.31229621 1.2190001 158 147 0 255
-0.063590482 -0.31101528 1.2140001 158 147 0 255
-0.061278097 -0.31101528 1.2140001 158 147 0 255
-0.05896572 -0.31101528 1.2140001 158 147 0 255
-0.056653336 -0.31101528 1.2140001 158 147 0 255
-0.054340959 -0.31101528 1.2140001 158 147 0 255
-0.051857144 -0.3099905 1.21 158 147 0 255
-0.049388576 -0.30896574 1.2060001 158 147 0 255
-0.047091432 -0.30896574 1.2060001 158 147 0 255
-0.04494286 -0.3099905 1.21 158 147 0 255
-0.042779051 -0.31101528 1.2140001 158 147 0 255
-0.070818104 -0.30997431 1.2190001 158 147 0 255
-0.068496197 -0.30997431 1.2190001 158 147 0 255
-0.066174291 -0.30997431 1.2190001 158 147 0 255
-0.063852385 -0.30997431 1.2190001 158 147 0 255
-0.061278097 -0.30870289 1.2140001 158 147 0 255
-0.05896572 -0.30870289 1.2140001 158 147 0 255
-0.056653336 -0.30870289 1.2140001 158 147 0 255
-0.054564763 -0.30997431 1.2190001 158 147 0 255
-0.052028574 -0.30870289 1.2140001 158 147 0 255
-0.049552381 -0.30768573 1.21 158 147 0 255
-0.047247618 -0.30768573 1.21 158 147 0 255
-0.045091432 -0.30870289 1.2140001 158 147 0 255
-0.042779051 -0.30870289 1.2140001 158 147 0 255
-0.07105048 -0.30866191 1.223 158 147 0 255
-0.068720959 -0.30866191 1.223 158 147 0 255
-0.066174291 -0.30765241 1.2190001 158 147 0 255
-0.063852385 -0.30765241 1.2190001 158 147 0 255
-0.061530478 -0.30765241 1.2190001 158 147 0 255
-0.059208576 -0.30765241 1.2190001 158 147 0 255
-0.056886673 -0.30765241 1.2190001 158 147 0 255
-0.054564763 -0.30765241 1.2190001 158 147 0 255
-0.05224286 -0.30765241 1.2190001 158 147 0 255
-0.049716193 -0.30639049 1.2140001 158 147 0 255
-0.047403816 -0.30639049 1.2140001 158 147 0 255
-0.045091432 -0.30639049 1.2140001 158 147 0 255
-0.042779051 -0.30639049 1.2140001 158 147 0 255
-0.068720959 -0.30633238 1.223 158 147 0 255
-0.066391431 -0.30633238 1.223 158 147 0 255
-0.064061902 -0.30633238 1.223 158 147 0 255
-0.061530478 -0.30533049 1.2190001 158 147 0 255
-0.059208576 -0.30533049 1.2190001 158 147 0 255
-0.056886673 -0.30533049 1.2190001 158 147 0 255
-0.054564763 -0.30533049 1.2190001 158 147 0 255
-0.05224286 -0.30533049 1.2190001 158 147 0 255
-0.049920954 -0.30533049 1.2190001 158 147 0 255
-0.068720959 -0.30400285 1.223 158 147 0 255
-0.066174291 -0.30300859 1.2190001 158 147 0 255
-0.063852385 -0.30300859 1.2190001 158 147 0 255
-0.061530478 -0.30300859 1.2190001 158 147 0 255
-0.059208576 -0.30300859 1.2190001 158 147 0 255
-0.056886673 -0.30300859 1.2190001 158 147 0 255
-0.054743811 -0.30400285 1.223 158 147 0 255
-0.066174291 -0.30068669 1.2190001 158 147 0 255
-0.063852385 -0.30068669 1.2190001 158 147 0 255
-0.061530478 -0.30068669 1.2190001 158 147 0 255
-0.05896572 -0.29945335 1.2140001 158 147 0 255
-0.056653336 -0.29945335 1.2140001 158 147 0 255
-0.066174291 -0.29836479 1.2190001 158 147 0 255
-0.061530478 -0.29836479 1.2190001 158 147 0 255
-0.05896572 -0.29714096 1.2140001 158 147 0 255
-0.056653336 -0.29714096 1.2140001 158 147 0 255
-0.054340959 -0.29714096 1.2140001 158 147 0 255
-0.057493336 -0.2945067 1.2320001 158 147 0 255
-0.055146672 -0.2945067 1.2320001 158 147 0 255
-0.07105048 -0.29002571 1.223 158 147 0 255
-0.066391431 -0.29002571 1.223 158 147 0 255
-0.061934292 -0.29097432 1.2270001 158 147 0 255
-0.059597149 -0.29097432 1.2270001 158 147 0 255
-0.057493336 -0.29216003 1.2320001 158 147 0 255
-0.055146672 -0.29216003 1.2320001 158 147 0 255
-0.07105048 -0.28769621 1.223 158 147 0 255
-0.068720959 -0.28769621 1.223 158 147 0 255
-0.066391431 -0.28769621 1.223 158 147 0 255
-0.064533345 -0.28981334 1.2320001 158 147 0 255
-0.061934292 -0.28863716 1.2270001 158 147 0 255
-0.059597149 -0.28863716 1.2270001 158 147 0 255
-0.057493336 -0.28981334 1.2320001 158 147 0 255
-0.055146672 -0.28981334 1.2320001 158 147 0 255
-0.05297143 -0.29075432 1.2360001 158 147 0 255
-0.050617144 -0.29075432 1.2360001 158 147 0 255
-0.071805716 -0.28839999 1.2360001 158 147 0 255
-0.068720959 -0.28536668 1.223 158 147 0 255
-0.066391431 -0.28536668 1.223 158 147 0 255
-0.064533345 -0.28746668 1.2320001 158 147 0 255
-0.06218667 -0.28746668 1.2320001 158 147 0 255
-0.059840005 -0.28746668 1.2320001 158 147 0 255
-0.057260003 -0.2863 1.2270001 158 147 0 255
-0.054922864 -0.2863 1.2270001 158 147 0 255
-0.052800007 -0.28746668 1.2320001 158 147 0 255
-0.050453339 -0.28746668 1.2320001 158 147 0 255
-0.074999996 -0.28928572 1.25 158 147 0 255
-0.071805716 -0.28604573 1.2360001 158 147 0 255
-0.069226667 -0.28512004 1.2320001 158 147 0 255
-0.066880003 -0.28512004 1.2320001 158 147 0 255
-0.064533345 -0.28512004 1.2320001 158 147 0 255
-0.06218667 -0.28512004 1.2320001 158 147 0 255
-0.059840005 -0.28512004 1.2320001 158 147 0 255
-0.057260003 -0.28396291 1.2270001 158 147 0 255
-0.054922864 -0.28396291 1.2270001 158 147 0 255
-0.052800007 -0.28512004 1.2320001 158 147 0 255
-0.050453339 -0.28512004 1.2320001 158 147 0 255
-0.075300008 -0.28805238 1.2550001 158 147 0 255
-0.072096191 -0.28483906 1.2410001 158 147 0 255
-0.069226667 -0.28277335 1.2320001 158 147 0 255
-0.066880003 -0.28277335 1.2320001 158 147 0 255
-0.064533345 -0.28277335 1.2320001 158 147 0 255
-0.06218667 -0.28277335 1.2320001 158 147 0 255
-0.059840005 -0.28277335 1.2320001 158 147 0 255
-0.057493336 -0.28277335 1.2320001 158 147 0 255
-0.055146672 -0.28277335 1.2320001 158 147 0 255
-0.05297143 -0.28369144 1.2360001 158 147 0 255
-0.050617144 -0.28369144 1.2360001 158 147 0 255
-0.072619043 -0.28452381 1.25 158 147 0 255
-0.069451429 -0.28133717 1.2360001 158 147 0 255
-0.067097142 -0.28133717 1.2360001 158 147 0 255
-0.064742863 -0.28133717 1.2360001 158 147 0 255
-0.062388573 -0.28133717 1.2360001 158 147 0 255
-0.060034286 -0.28133717 1.2360001 158 147 0 255
-0.057680003 -0.28133717 1.2360001 158 147 0 255
-0.055325717 -0.28133717 1.2360001 158 147 0 255
-0.05297143 -0.28133717 1.2360001 158 147 0 255
-0.050617144 -0.28133717 1.2360001 158 147 0 255
-0.072909534 -0.28327146 1.2550001 158 147 0 255
-0.070238091 -0.28214285 1.25 158 147 0 255
-0.067585714 -0.28101429 1.245 158 147 0 255
-0.065004766 -0.28011143 1.2410001 158 147 0 255
-0.062640958 -0.28011143 1.2410001 158 147 0 255
-0.060034286 -0.27898285 1.2360001 158 147 0 255
-0.057680003 -0.27898285 1.2360001 158 147 0 255
-0.055325717 -0.27898285 1.2360001 158 147 0 255
-0.053357143 -0.28101429 1.245 158 147 0 255
-0.07314191 -0.28177622 1.2590001 158 147 0 255
-0.070519052 -0.28088096 1.2550001 158 147 0 255
-0.067857139 -0.27976191 1.25 158 147 0 255
-0.065476187 -0.27976191 1.25 158 147 0 255
-0.062842853 -0.27864286 1.245 158 147 0 255
-0.060277145 -0.27774763 1.2410001 158 147 0 255
-0.057913333 -0.27774763 1.2410001 158 147 0 255
-0.055549525 -0.27774763 1.2410001 158 147 0 255
-0.053785719 -0.28088096 1.2550001 158 147 0 255
-0.070743814 -0.27937812 1.2590001 158 147 0 255
-0.068128571 -0.27849051 1.2550001 158 147 0 255
-0.065738104 -0.27849051 1.2550001 158 147 0 255
-0.063095234 -0.27738094 1.25 158 147 0 255
-0.060471427 -0.2762714 1.245 158 147 0 255
-0.0581 -0.2762714 1.245 158 147 0 255
-0.055952381 -0.27738094 1.25 158 147 0 255
-0.068345711 -0.27698001 1.2590001 158 147 0 255
-0.065738104 -0.27610004 1.2550001 158 147 0 255
-0.063347623 -0.27610004 1.2550001 158 147 0 255
-0.060957149 -0.27610004 1.2550001 158 147 0 255
-0.058566671 -0.27610004 1.2550001 158 147 0 255
-0.056355242 -0.27698001 1.2590001 158 147 0 255
-0.065947622 -0.27458191 1.2590001 158 147 0 255
-0.063549526 -0.27458191 1.2590001 158 147 0 255
-0.061151426 -0.27458191 1.2590001 158 147 0 255
-0.058753334 -0.27458191 1.2590001 158 147 0 255
0 0 0 1 0 0 0 1 0 0 0 1 0 0 0 0 0 204 1 0 0
