ply
format ascii 1.0
comment PCL generated
element vertex 490
property float x
property float y
property float z
property uchar red
property uchar green
property uchar blue
property uchar alpha
element camera 1
property float view_px
property float view_py
property float view_pz
property float x_axisx
property float x_axisy
property float x_axisz
property float y_axisx
property float y_axisy
property float y_axisz
property float z_axisx
property float z_axisy
property float z_axisz
property float focal
property float scalex
property float scaley
property float centerx
property float centery
property int viewportx
property int viewporty
property float k1
property float k2
end_header
-0.094633341 -0.27499333 1.169 0 255 0 255
-0.092406668 -0.27499333 1.169 0 255 0 255
-0.097191438 -0.2737 1.1730001 0 255 0 255
-0.094633341 -0.27276665 1.169 0 255 0 255
-0.092406668 -0.27276665 1.169 0 255 0 255
-0.091105722 -0.2755667 1.1810001 0 255 0 255
-0.089157149 -0.27650002 1.1850001 0 255 0 255
-0.086900003 -0.27650002 1.1850001 0 255 0 255
-0.10235334 -0.27331716 1.1810001 0 255 0 255
-0.10010382 -0.27331716 1.1810001 0 255 0 255
-0.097191438 -0.27146575 1.1730001 0 255 0 255
-0.094957151 -0.27146575 1.1730001 0 255 0 255
-0.093039051 -0.27239144 1.177 0 255 0 255
-0.091105722 -0.27331716 1.1810001 0 255 0 255
-0.089157149 -0.27424288 1.1850001 0 255 0 255
-0.086900003 -0.27424288 1.1850001 0 255 0 255
-0.084928572 -0.27516857 1.189 0 255 0 255
-0.10947143 -0.27198574 1.1850001 0 255 0 255
-0.10721429 -0.27198574 1.1850001 0 255 0 255
-0.10495715 -0.27198574 1.1850001 0 255 0 255
-0.10235334 -0.27106765 1.1810001 0 255 0 255
-0.10010382 -0.27106765 1.1810001 0 255 0 255
-0.097854294 -0.27106765 1.1810001 0 255 0 255
-0.09560477 -0.27106765 1.1810001 0 255 0 255
-0.093355246 -0.27106765 1.1810001 0 255 0 255
-0.091414295 -0.27198574 1.1850001 0 255 0 255
-0.089157149 -0.27198574 1.1850001 0 255 0 255
-0.086900003 -0.27198574 1.1850001 0 255 0 255
-0.084928572 -0.27290383 1.189 0 255 0 255
-0.11210571 -0.27063903 1.189 0 255 0 255
-0.10947143 -0.2697286 1.1850001 0 255 0 255
-0.10721429 -0.2697286 1.1850001 0 255 0 255
-0.10495715 -0.2697286 1.1850001 0 255 0 255
-0.1027 -0.2697286 1.1850001 0 255 0 255
-0.10010382 -0.26881811 1.1810001 0 255 0 255
-0.097854294 -0.26881811 1.1810001 0 255 0 255
-0.09560477 -0.26881811 1.1810001 0 255 0 255
-0.093671434 -0.2697286 1.1850001 0 255 0 255
-0.091414295 -0.2697286 1.1850001 0 255 0 255
-0.089157149 -0.2697286 1.1850001 0 255 0 255
-0.086900003 -0.2697286 1.1850001 0 255 0 255
-0.084928572 -0.27063903 1.189 0 255 0 255
-0.082941905 -0.27154952 1.1930001 0 255 0 255
-0.080669522 -0.27154952 1.1930001 0 255 0 255
-0.078397147 -0.27154952 1.1930001 0 255 0 255
-0.11702763 -0.26927716 1.1930001 0 255 0 255
-0.11475525 -0.26927716 1.1930001 0 255 0 255
-0.11210571 -0.26837429 1.189 0 255 0 255
-0.10947143 -0.26747143 1.1850001 0 255 0 255
-0.10721429 -0.26747143 1.1850001 0 255 0 255
-0.10495715 -0.26747143 1.1850001 0 255 0 255
-0.1027 -0.26747143 1.1850001 0 255 0 255
-0.10010382 -0.2665686 1.1810001 0 255 0 255
-0.097854294 -0.2665686 1.1810001 0 255 0 255
-0.09560477 -0.2665686 1.1810001 0 255 0 255
-0.093671434 -0.26747143 1.1850001 0 255 0 255
-0.091414295 -0.26747143 1.1850001 0 255 0 255
-0.089157149 -0.26747143 1.1850001 0 255 0 255
-0.086900003 -0.26747143 1.1850001 0 255 0 255
-0.084928572 -0.26837429 1.189 0 255 0 255
-0.082941905 -0.26927716 1.1930001 0 255 0 255
-0.080669522 -0.26927716 1.1930001 0 255 0 255
-0.078397147 -0.26927716 1.1930001 0 255 0 255
-0.076380007 -0.27017999 1.197 0 255 0 255
-0.12248952 -0.26901904 1.202 0 255 0 255
-0.1202 -0.26901904 1.202 0 255 0 255
-0.11702763 -0.26700476 1.1930001 0 255 0 255
-0.11475525 -0.26700476 1.1930001 0 255 0 255
-0.11210571 -0.26610953 1.189 0 255 0 255
-0.10984095 -0.26610953 1.189 0 255 0 255
-0.10721429 -0.26521429 1.1850001 0 255 0 255
-0.10495715 -0.26521429 1.1850001 0 255 0 255
-0.1027 -0.26521429 1.1850001 0 255 0 255
-0.10010382 -0.26431909 1.1810001 0 255 0 255
-0.097854294 -0.26431909 1.1810001 0 255 0 255
-0.09560477 -0.26431909 1.1810001 0 255 0 255
-0.093671434 -0.26521429 1.1850001 0 255 0 255
-0.091414295 -0.26521429 1.1850001 0 255 0 255
-0.089157149 -0.26521429 1.1850001 0 255 0 255
-0.086900003 -0.26521429 1.1850001 0 255 0 255
-0.084642865 -0.26521429 1.1850001 0 255 0 255
-0.082941905 -0.26700476 1.1930001 0 255 0 255
-0.080669522 -0.26700476 1.1930001 0 255 0 255
-0.078397147 -0.26700476 1.1930001 0 255 0 255
-0.076124765 -0.26700476 1.1930001 0 255 0 255
-0.073852383 -0.26700476 1.1930001 0 255 0 255
-0.12248952 -0.26672953 1.202 0 255 0 255
-0.11970001 -0.26561999 1.197 0 255 0 255
-0.11702763 -0.26473239 1.1930001 0 255 0 255
-0.11437048 -0.26384476 1.189 0 255 0 255
-0.11210571 -0.26384476 1.189 0 255 0 255
-0.10984095 -0.26384476 1.189 0 255 0 255
-0.10721429 -0.26295716 1.1850001 0 255 0 255
-0.10495715 -0.26295716 1.1850001 0 255 0 255
-0.1027 -0.26295716 1.1850001 0 255 0 255
-0.10010382 -0.26206955 1.1810001 0 255 0 255
-0.097854294 -0.26206955 1.1810001 0 255 0 255
-0.09560477 -0.26206955 1.1810001 0 255 0 255
-0.093671434 -0.26295716 1.1850001 0 255 0 255
-0.091414295 -0.26295716 1.1850001 0 255 0 255
-0.089157149 -0.26295716 1.1850001 0 255 0 255
-0.086900003 -0.26295716 1.1850001 0 255 0 255
-0.084642865 -0.26295716 1.1850001 0 255 0 255
-0.082663804 -0.26384476 1.189 0 255 0 255
-0.080669522 -0.26473239 1.1930001 0 255 0 255
-0.078397147 -0.26473239 1.1930001 0 255 0 255
-0.076124765 -0.26473239 1.1930001 0 255 0 255
-0.073604763 -0.26384476 1.189 0 255 0 255
-0.071100004 -0.26295716 1.1850001 0 255 0 255
-0.068842858 -0.26295716 1.1850001 0 255 0 255
-0.12477905 -0.26444 1.202 0 255 0 255
-0.12198001 -0.26334003 1.197 0 255 0 255
-0.11970001 -0.26334003 1.197 0 255 0 255
-0.11702763 -0.26245999 1.1930001 0 255 0 255
-0.11437048 -0.26157999 1.189 0 255 0 255
-0.11172857 -0.26070002 1.1850001 0 255 0 255
-0.10947143 -0.26070002 1.1850001 0 255 0 255
-0.10721429 -0.26070002 1.1850001 0 255 0 255
-0.10495715 -0.26070002 1.1850001 0 255 0 255
-0.1027 -0.26070002 1.1850001 0 255 0 255
-0.10044286 -0.26070002 1.1850001 0 255 0 255
-0.098185718 -0.26070002 1.1850001 0 255 0 255
-0.09592858 -0.26070002 1.1850001 0 255 0 255
-0.093671434 -0.26070002 1.1850001 0 255 0 255
-0.091414295 -0.26070002 1.1850001 0 255 0 255
-0.089157149 -0.26070002 1.1850001 0 255 0 255
-0.086900003 -0.26070002 1.1850001 0 255 0 255
-0.084642865 -0.26070002 1.1850001 0 255 0 255
-0.082663804 -0.26157999 1.189 0 255 0 255
-0.080669522 -0.26245999 1.1930001 0 255 0 255
-0.078397147 -0.26245999 1.1930001 0 255 0 255
-0.076124765 -0.26245999 1.1930001 0 255 0 255
-0.073604763 -0.26157999 1.189 0 255 0 255
-0.071100004 -0.26070002 1.1850001 0 255 0 255
-0.068378098 -0.25894001 1.177 0 255 0 255
-0.065911435 -0.25806001 1.1730001 0 255 0 255
-0.063677147 -0.25806001 1.1730001 0 255 0 255
-0.12426001 -0.26106 1.197 0 255 0 255
-0.12198001 -0.26106 1.197 0 255 0 255
-0.11970001 -0.26106 1.197 0 255 0 255
-0.11702763 -0.26018763 1.1930001 0 255 0 255
-0.11437048 -0.25931525 1.189 0 255 0 255
-0.11172857 -0.25844288 1.1850001 0 255 0 255
-0.10947143 -0.25844288 1.1850001 0 255 0 255
-0.10721429 -0.25844288 1.1850001 0 255 0 255
-0.10495715 -0.25844288 1.1850001 0 255 0 255
-0.1027 -0.25844288 1.1850001 0 255 0 255
-0.10044286 -0.25844288 1.1850001 0 255 0 255
-0.098185718 -0.25844288 1.1850001 0 255 0 255
-0.09592858 -0.25844288 1.1850001 0 255 0 255
-0.093671434 -0.25844288 1.1850001 0 255 0 255
-0.091414295 -0.25844288 1.1850001 0 255 0 255
-0.089157149 -0.25844288 1.1850001 0 255 0 255
-0.086900003 -0.25844288 1.1850001 0 255 0 255
-0.084928572 -0.25931525 1.189 0 255 0 255
-0.082663804 -0.25931525 1.189 0 255 0 255
-0.080669522 -0.26018763 1.1930001 0 255 0 255
-0.078397147 -0.26018763 1.1930001 0 255 0 255
-0.075869523 -0.25931525 1.189 0 255 0 255
-0.073357143 -0.25844288 1.1850001 0 255 0 255
-0.070860006 -0.25757051 1.1810001 0 255 0 255
-0.068145722 -0.25582576 1.1730001 0 255 0 255
-0.12706856 -0.25986096 1.202 0 255 0 255
-0.12426001 -0.25878 1.197 0 255 0 255
-0.12198001 -0.25878 1.197 0 255 0 255
-0.11970001 -0.25878 1.197 0 255 0 255
-0.11702763 -0.25791523 1.1930001 0 255 0 255
-0.11437048 -0.25705048 1.189 0 255 0 255
-0.11210571 -0.25705048 1.189 0 255 0 255
-0.10947143 -0.25618574 1.1850001 0 255 0 255
-0.10721429 -0.25618574 1.1850001 0 255 0 255
-0.10495715 -0.25618574 1.1850001 0 255 0 255
-0.1027 -0.25618574 1.1850001 0 255 0 255
-0.10044286 -0.25618574 1.1850001 0 255 0 255
-0.098185718 -0.25618574 1.1850001 0 255 0 255
-0.09592858 -0.25618574 1.1850001 0 255 0 255
-0.093671434 -0.25618574 1.1850001 0 255 0 255
-0.091414295 -0.25618574 1.1850001 0 255 0 255
-0.089157149 -0.25618574 1.1850001 0 255 0 255
-0.087193333 -0.25705048 1.189 0 255 0 255
-0.084928572 -0.25705048 1.189 0 255 0 255
-0.082941905 -0.25791523 1.1930001 0 255 0 255
-0.080669522 -0.25791523 1.1930001 0 255 0 255
-0.078397147 -0.25791523 1.1930001 0 255 0 255
-0.075869523 -0.25705048 1.189 0 255 0 255
-0.073357143 -0.25618574 1.1850001 0 255 0 255
-0.070860006 -0.255321 1.1810001 0 255 0 255
-0.068145722 -0.25359145 1.1730001 0 255 0 255
-0.12654001 -0.25650001 1.197 0 255 0 255
-0.12426001 -0.25650001 1.197 0 255 0 255
-0.12198001 -0.25650001 1.197 0 255 0 255
-0.11970001 -0.25650001 1.197 0 255 0 255
-0.11702763 -0.25564286 1.1930001 0 255 0 255
-0.11437048 -0.25478572 1.189 0 255 0 255
-0.11210571 -0.25478572 1.189 0 255 0 255
-0.10984095 -0.25478572 1.189 0 255 0 255
-0.10721429 -0.25392857 1.1850001 0 255 0 255
-0.10495715 -0.25392857 1.1850001 0 255 0 255
-0.1027 -0.25392857 1.1850001 0 255 0 255
-0.10044286 -0.25392857 1.1850001 0 255 0 255
-0.098185718 -0.25392857 1.1850001 0 255 0 255
-0.09592858 -0.25392857 1.1850001 0 255 0 255
-0.093671434 -0.25392857 1.1850001 0 255 0 255
-0.091722853 -0.25478572 1.189 0 255 0 255
-0.089458093 -0.25478572 1.189 0 255 0 255
-0.087193333 -0.25478572 1.189 0 255 0 255
-0.084928572 -0.25478572 1.189 0 255 0 255
-0.082941905 -0.25564286 1.1930001 0 255 0 255
-0.080669522 -0.25564286 1.1930001 0 255 0 255
-0.078397147 -0.25564286 1.1930001 0 255 0 255
-0.076124765 -0.25564286 1.1930001 0 255 0 255
-0.073604763 -0.25478572 1.189 0 255 0 255
-0.070860006 -0.25307146 1.1810001 0 255 0 255
-0.068145722 -0.25135717 1.1730001 0 255 0 255
-0.065911435 -0.25135717 1.1730001 0 255 0 255
-0.12654001 -0.25422001 1.197 0 255 0 255
-0.12384477 -0.25337049 1.1930001 0 255 0 255
-0.12157239 -0.25337049 1.1930001 0 255 0 255
-0.11930001 -0.25337049 1.1930001 0 255 0 255
-0.11702763 -0.25337049 1.1930001 0 255 0 255
-0.11437048 -0.25252095 1.189 0 255 0 255
-0.11210571 -0.25252095 1.189 0 255 0 255
-0.10984095 -0.25252095 1.189 0 255 0 255
-0.10757619 -0.25252095 1.189 0 255 0 255
-0.10495715 -0.25167143 1.1850001 0 255 0 255
-0.1027 -0.25167143 1.1850001 0 255 0 255
-0.1007819 -0.25252095 1.189 0 255 0 255
-0.098517142 -0.25252095 1.189 0 255 0 255
-0.096252382 -0.25252095 1.189 0 255 0 255
-0.093987621 -0.25252095 1.189 0 255 0 255
-0.091722853 -0.25252095 1.189 0 255 0 255
-0.089458093 -0.25252095 1.189 0 255 0 255
-0.087193333 -0.25252095 1.189 0 255 0 255
-0.084928572 -0.25252095 1.189 0 255 0 255
-0.082941905 -0.25337049 1.1930001 0 255 0 255
-0.080669522 -0.25337049 1.1930001 0 255 0 255
-0.078397147 -0.25337049 1.1930001 0 255 0 255
-0.076124765 -0.25337049 1.1930001 0 255 0 255
-0.073604763 -0.25252095 1.189 0 255 0 255
-0.071100004 -0.25167143 1.1850001 0 255 0 255
-0.068610482 -0.25082195 1.1810001 0 255 0 255
-0.066360958 -0.25082195 1.1810001 0 255 0 255
-0.12384477 -0.2510981 1.1930001 0 255 0 255
-0.12157239 -0.2510981 1.1930001 0 255 0 255
-0.11930001 -0.2510981 1.1930001 0 255 0 255
-0.11702763 -0.2510981 1.1930001 0 255 0 255
-0.11437048 -0.25025621 1.189 0 255 0 255
-0.11210571 -0.25025621 1.189 0 255 0 255
-0.10984095 -0.25025621 1.189 0 255 0 255
-0.10757619 -0.25025621 1.189 0 255 0 255
-0.10531143 -0.25025621 1.189 0 255 0 255
-0.10304666 -0.25025621 1.189 0 255 0 255
-0.1007819 -0.25025621 1.189 0 255 0 255
-0.098517142 -0.25025621 1.189 0 255 0 255
-0.096252382 -0.25025621 1.189 0 255 0 255
-0.093987621 -0.25025621 1.189 0 255 0 255
-0.092031434 -0.2510981 1.1930001 0 255 0 255
-0.089759052 -0.2510981 1.1930001 0 255 0 255
-0.087486669 -0.2510981 1.1930001 0 255 0 255
-0.085214287 -0.2510981 1.1930001 0 255 0 255
-0.082941905 -0.2510981 1.1930001 0 255 0 255
-0.080669522 -0.2510981 1.1930001 0 255 0 255
-0.078397147 -0.2510981 1.1930001 0 255 0 255
-0.076124765 -0.2510981 1.1930001 0 255 0 255
-0.073604763 -0.25025621 1.189 0 255 0 255
-0.071100004 -0.24941429 1.1850001 0 255 0 255
-0.068610482 -0.24857241 1.1810001 0 255 0 255
-0.066360958 -0.24857241 1.1810001 0 255 0 255
-0.12198001 -0.24966 1.197 0 255 0 255
-0.11970001 -0.24966 1.197 0 255 0 255
-0.11702763 -0.24882574 1.1930001 0 255 0 255
-0.11475525 -0.24882574 1.1930001 0 255 0 255
-0.11248287 -0.24882574 1.1930001 0 255 0 255
-0.10984095 -0.24799141 1.189 0 255 0 255
-0.10757619 -0.24799141 1.189 0 255 0 255
-0.10531143 -0.24799141 1.189 0 255 0 255
-0.10304666 -0.24799141 1.189 0 255 0 255
-0.1007819 -0.24799141 1.189 0 255 0 255
-0.098517142 -0.24799141 1.189 0 255 0 255
-0.096576199 -0.24882574 1.1930001 0 255 0 255
-0.094303817 -0.24882574 1.1930001 0 255 0 255
-0.09234 -0.24966 1.197 0 255 0 255
-0.090060003 -0.24966 1.197 0 255 0 255
-0.087779999 -0.24966 1.197 0 255 0 255
-0.085500002 -0.24966 1.197 0 255 0 255
-0.083220005 -0.24966 1.197 0 255 0 255
-0.080940001 -0.24966 1.197 0 255 0 255
-0.078660004 -0.24966 1.197 0 255 0 255
-0.076380007 -0.24966 1.197 0 255 0 255
-0.073852383 -0.24882574 1.1930001 0 255 0 255
-0.071100004 -0.24715716 1.1850001 0 255 0 255
-0.068842858 -0.24715716 1.1850001 0 255 0 255
-0.12248952 -0.24841334 1.202 0 255 0 255
-0.11970001 -0.24737999 1.197 0 255 0 255
-0.11742 -0.24737999 1.197 0 255 0 255
-0.11475525 -0.24655335 1.1930001 0 255 0 255
-0.11248287 -0.24655335 1.1930001 0 255 0 255
-0.11021049 -0.24655335 1.1930001 0 255 0 255
-0.1079381 -0.24655335 1.1930001 0 255 0 255
-0.10531143 -0.24572666 1.189 0 255 0 255
-0.10304666 -0.24572666 1.189 0 255 0 255
-0.1007819 -0.24572666 1.189 0 255 0 255
-0.098517142 -0.24572666 1.189 0 255 0 255
-0.096576199 -0.24655335 1.1930001 0 255 0 255
-0.094620004 -0.24737999 1.197 0 255 0 255
-0.092725717 -0.24841334 1.202 0 255 0 255
-0.09043619 -0.24841334 1.202 0 255 0 255
-0.088146664 -0.24841334 1.202 0 255 0 255
-0.085857145 -0.24841334 1.202 0 255 0 255
-0.083567619 -0.24841334 1.202 0 255 0 255
-0.080940001 -0.24737999 1.197 0 255 0 255
-0.078660004 -0.24737999 1.197 0 255 0 255
-0.076380007 -0.24737999 1.197 0 255 0 255
-0.073852383 -0.24655335 1.1930001 0 255 0 255
-0.071100004 -0.24490002 1.1850001 0 255 0 255
-0.068842858 -0.24490002 1.1850001 0 255 0 255
-0.12248952 -0.24612381 1.202 0 255 0 255
-0.1202 -0.24612381 1.202 0 255 0 255
-0.11742 -0.24510001 1.197 0 255 0 255
-0.11475525 -0.24428098 1.1930001 0 255 0 255
-0.11248287 -0.24428098 1.1930001 0 255 0 255
-0.11021049 -0.24428098 1.1930001 0 255 0 255
-0.1079381 -0.24428098 1.1930001 0 255 0 255
-0.10566572 -0.24428098 1.1930001 0 255 0 255
-0.10339334 -0.24428098 1.1930001 0 255 0 255
-0.10112096 -0.24428098 1.1930001 0 255 0 255
-0.098848581 -0.24428098 1.1930001 0 255 0 255
-0.097304761 -0.24612381 1.202 0 255 0 255
-0.095331438 -0.24694286 1.2060001 0 255 0 255
-0.09303429 -0.24694286 1.2060001 0 255 0 255
-0.090737149 -0.24694286 1.2060001 0 255 0 255
-0.088440008 -0.24694286 1.2060001 0 255 0 255
-0.08614286 -0.24694286 1.2060001 0 255 0 255
-0.08384572 -0.24694286 1.2060001 0 255 0 255
-0.081278101 -0.24612381 1.202 0 255 0 255
-0.078988574 -0.24612381 1.202 0 255 0 255
-0.076380007 -0.24510001 1.197 0 255 0 255
-0.074100003 -0.24510001 1.197 0 255 0 255
-0.071820006 -0.24510001 1.197 0 255 0 255
-0.1202 -0.24383429 1.202 0 255 0 255
-0.11742 -0.24281999 1.197 0 255 0 255
-0.11514 -0.24281999 1.197 0 255 0 255
-0.11286 -0.24281999 1.197 0 255 0 255
-0.11058 -0.24281999 1.197 0 255 0 255
-0.1083 -0.24281999 1.197 0 255 0 255
-0.10566572 -0.2420086 1.1930001 0 255 0 255
-0.10339334 -0.2420086 1.1930001 0 255 0 255
-0.10112096 -0.2420086 1.1930001 0 255 0 255
-0.099179998 -0.24281999 1.197 0 255 0 255
-0.097952388 -0.24545716 1.21 0 255 0 255
-0.095647618 -0.24545716 1.21 0 255 0 255
-0.093342856 -0.24545716 1.21 0 255 0 255
-0.0910381 -0.24545716 1.21 0 255 0 255
-0.088733338 -0.24545716 1.21 0 255 0 255
-0.086428568 -0.24545716 1.21 0 255 0 255
-0.084123813 -0.24545716 1.21 0 255 0 255
-0.081548579 -0.24464573 1.2060001 0 255 0 255
-0.079251431 -0.24464573 1.2060001 0 255 0 255
-0.076699048 -0.24383429 1.202 0 255 0 255
-0.07440953 -0.24383429 1.202 0 255 0 255
-0.072360002 -0.24464573 1.2060001 0 255 0 255
-0.070062861 -0.24464573 1.2060001 0 255 0 255
-0.11869524 -0.24315239 1.21 0 255 0 255
-0.11600572 -0.24234858 1.2060001 0 255 0 255
-0.11370859 -0.24234858 1.2060001 0 255 0 255
-0.11141144 -0.24234858 1.2060001 0 255 0 255
-0.1083 -0.24054 1.197 0 255 0 255
-0.10602 -0.24054 1.197 0 255 0 255
-0.10374 -0.24054 1.197 0 255 0 255
-0.10146 -0.24054 1.197 0 255 0 255
-0.099179998 -0.24054 1.197 0 255 0 255
-0.097952388 -0.24315239 1.21 0 255 0 255
-0.095647618 -0.24315239 1.21 0 255 0 255
-0.093342856 -0.24315239 1.21 0 255 0 255
-0.091339052 -0.24395621 1.2140001 0 255 0 255
-0.089026667 -0.24395621 1.2140001 0 255 0 255
-0.086714298 -0.24395621 1.2140001 0 255 0 255
-0.084401913 -0.24395621 1.2140001 0 255 0 255
-0.08181905 -0.24315239 1.21 0 255 0 255
-0.079514287 -0.24315239 1.21 0 255 0 255
-0.076954298 -0.24234858 1.2060001 0 255 0 255
-0.07465715 -0.24234858 1.2060001 0 255 0 255
-0.0726 -0.24315239 1.21 0 255 0 255
-0.070818104 -0.24496096 1.2190001 0 255 0 255
-0.11850668 -0.2452267 1.2320001 0 255 0 255
-0.11446287 -0.24164383 1.2140001 0 255 0 255
-0.11178096 -0.24084763 1.21 0 255 0 255
-0.10947619 -0.24084763 1.21 0 255 0 255
-0.10752572 -0.24164383 1.2140001 0 255 0 255
-0.10521334 -0.24164383 1.2140001 0 255 0 255
-0.10290097 -0.24164383 1.2140001 0 255 0 255
-0.10058858 -0.24164383 1.2140001 0 255 0 255
-0.098276198 -0.24164383 1.2140001 0 255 0 255
-0.096359059 -0.24263906 1.2190001 0 255 0 255
-0.094037145 -0.24263906 1.2190001 0 255 0 255
-0.091715246 -0.24263906 1.2190001 0 255 0 255
-0.08939334 -0.24263906 1.2190001 0 255 0 255
-0.087071441 -0.24263906 1.2190001 0 255 0 255
-0.084749527 -0.24263906 1.2190001 0 255 0 255
-0.082089528 -0.24164383 1.2140001 0 255 0 255
-0.079777151 -0.24164383 1.2140001 0 255 0 255
-0.077464767 -0.24164383 1.2140001 0 255 0 255
-0.075152382 -0.24164383 1.2140001 0 255 0 255
-0.073140003 -0.24263906 1.2190001 0 255 0 255
-0.070818104 -0.24263906 1.2190001 0 255 0 255
-0.11850668 -0.24288002 1.2320001 0 255 0 255
-0.11616001 -0.24288002 1.2320001 0 255 0 255
-0.11261239 -0.24031717 1.2190001 0 255 0 255
-0.11029048 -0.24031717 1.2190001 0 255 0 255
-0.10796858 -0.24031717 1.2190001 0 255 0 255
-0.10564668 -0.24031717 1.2190001 0 255 0 255
-0.10332477 -0.24031717 1.2190001 0 255 0 255
-0.10100286 -0.24031717 1.2190001 0 255 0 255
-0.098680958 -0.24031717 1.2190001 0 255 0 255
-0.096359059 -0.24031717 1.2190001 0 255 0 255
-0.094037145 -0.24031717 1.2190001 0 255 0 255
-0.09201619 -0.24110572 1.223 0 255 0 255
-0.08939334 -0.24031717 1.2190001 0 255 0 255
-0.087071441 -0.24031717 1.2190001 0 255 0 255
-0.084749527 -0.24031717 1.2190001 0 255 0 255
-0.082427621 -0.24031717 1.2190001 0 255 0 255
-0.080105722 -0.24031717 1.2190001 0 255 0 255
-0.077783816 -0.24031717 1.2190001 0 255 0 255
-0.075461909 -0.24031717 1.2190001 0 255 0 255
-0.073140003 -0.24031717 1.2190001 0 255 0 255
-0.11937238 -0.24229048 1.2410001 0 255 0 255
-0.11653715 -0.24131429 1.2360001 0 255 0 255
-0.11335144 -0.23955716 1.2270001 0 255 0 255
-0.11101429 -0.23955716 1.2270001 0 255 0 255
-0.10867715 -0.23955716 1.2270001 0 255 0 255
-0.10634001 -0.23955716 1.2270001 0 255 0 255
-0.10366382 -0.23877619 1.223 0 255 0 255
-0.10133429 -0.23877619 1.223 0 255 0 255
-0.10005715 -0.24131429 1.2360001 0 255 0 255
-0.096991435 -0.23955716 1.2270001 0 255 0 255
-0.094654292 -0.23955716 1.2270001 0 255 0 255
-0.092317149 -0.23955716 1.2270001 0 255 0 255
-0.089980014 -0.23955716 1.2270001 0 255 0 255
-0.087642863 -0.23955716 1.2270001 0 255 0 255
-0.085305721 -0.23955716 1.2270001 0 255 0 255
-0.082968585 -0.23955716 1.2270001 0 255 0 255
-0.080368571 -0.23877619 1.223 0 255 0 255
-0.07803905 -0.23877619 1.223 0 255 0 255
-0.075709529 -0.23877619 1.223 0 255 0 255
-0.073380001 -0.23877619 1.223 0 255 0 255
-0.11738571 -0.24069999 1.245 0 255 0 255
-0.11464477 -0.23992667 1.2410001 0 255 0 255
-0.11182857 -0.23896001 1.2360001 0 255 0 255
-0.10947429 -0.23896001 1.2360001 0 255 0 255
-0.10712001 -0.23896001 1.2360001 0 255 0 255
-0.10476572 -0.23896001 1.2360001 0 255 0 255
-0.10241143 -0.23896001 1.2360001 0 255 0 255
-0.10005715 -0.23896001 1.2360001 0 255 0 255
-0.097702861 -0.23896001 1.2360001 0 255 0 255
-0.095348574 -0.23896001 1.2360001 0 255 0 255
-0.092994288 -0.23896001 1.2360001 0 255 0 255
-0.090640001 -0.23896001 1.2360001 0 255 0 255
-0.088285714 -0.23896001 1.2360001 0 255 0 255
-0.085931435 -0.23896001 1.2360001 0 255 0 255
-0.083577149 -0.23896001 1.2360001 0 255 0 255
-0.081222862 -0.23896001 1.2360001 0 255 0 255
-0.078868575 -0.23896001 1.2360001 0 255 0 255
-0.076514289 -0.23896001 1.2360001 0 255 0 255
-0.074699998 -0.24069999 1.245 0 255 0 255
-0.11738571 -0.23832856 1.245 0 255 0 255
-0.11501428 -0.23832856 1.245 0 255 0 255
-0.11264285 -0.23832856 1.245 0 255 0 255
-0.10991714 -0.23756287 1.2410001 0 255 0 255
-0.10755334 -0.23756287 1.2410001 0 255 0 255
-0.10552857 -0.23832856 1.245 0 255 0 255
-0.10282572 -0.23756287 1.2410001 0 255 0 255
-0.10046192 -0.23756287 1.2410001 0 255 0 255
-0.098098099 -0.23756287 1.2410001 0 255 0 255
-0.095734291 -0.23756287 1.2410001 0 255 0 255
-0.093370475 -0.23756287 1.2410001 0 255 0 255
-0.091006674 -0.23756287 1.2410001 0 255 0 255
-0.088642858 -0.23756287 1.2410001 0 255 0 255
-0.08627905 -0.23756287 1.2410001 0 255 0 255
-0.083915241 -0.23756287 1.2410001 0 255 0 255
-0.081551433 -0.23756287 1.2410001 0 255 0 255
-0.079187624 -0.23756287 1.2410001 0 255 0 255
-0.076823808 -0.23756287 1.2410001 0 255 0 255
-0.074699998 -0.23832856 1.245 0 255 0 255
-0.096042857 -0.23595715 1.245 0 255 0 255
-0.093671434 -0.23595715 1.245 0 255 0 255
-0.091299996 -0.23595715 1.245 0 255 0 255
-0.088928573 -0.23595715 1.245 0 255 0 255
-0.086557142 -0.23595715 1.245 0 255 0 255
-0.084185712 -0.23595715 1.245 0 255 0 255
-0.081814282 -0.23595715 1.245 0 255 0 255
0 0 0 1 0 0 0 1 0 0 0 1 0 0 0 0 0 490 1 0 0
