ply
format ascii 1.0
comment PCL generated
element vertex 365
property float x
property float y
property float z
property uchar red
property uchar green
property uchar blue
property uchar alpha
element camera 1
property float view_px
property float view_py
property float view_pz
property float x_axisx
property float x_axisy
property float x_axisz
property float y_axisx
property float y_axisy
property float y_axisz
property float z_axisx
property float z_axisy
property float z_axisz
property float focal
property float scalex
property float scaley
property float centerx
property float centery
property int viewportx
property int viewporty
property float k1
property float k2
end_header
-0.25013238 -0.15096095 1.1570001 255 255 180 255
-0.24707142 -0.15043904 1.153 255 255 180 255
-0.24487522 -0.15043904 1.153 255 255 180 255
-0.2523362 -0.14875714 1.1570001 255 255 180 255
-0.25013238 -0.14875714 1.1570001 255 255 180 255
-0.24707142 -0.14824286 1.153 255 255 180 255
-0.24487522 -0.14824286 1.153 255 255 180 255
-0.24267904 -0.14824286 1.153 255 255 180 255
-0.24048285 -0.14824286 1.153 255 255 180 255
-0.23746 -0.14772858 1.149 255 255 180 255
-0.23527142 -0.14772858 1.149 255 255 180 255
-0.25984284 -0.14705999 1.161 255 255 180 255
-0.25763142 -0.14705999 1.161 255 255 180 255
-0.25542 -0.14705999 1.161 255 255 180 255
-0.2523362 -0.14655334 1.1570001 255 255 180 255
-0.25013238 -0.14655334 1.1570001 255 255 180 255
-0.24792857 -0.14655334 1.1570001 255 255 180 255
-0.24487522 -0.14604667 1.153 255 255 180 255
-0.24267904 -0.14604667 1.153 255 255 180 255
-0.24048285 -0.14604667 1.153 255 255 180 255
-0.23746 -0.14554 1.149 255 255 180 255
-0.23527142 -0.14554 1.149 255 255 180 255
-0.23389429 -0.14604667 1.153 255 255 180 255
-0.26115143 -0.14434953 1.1570001 255 255 180 255
-0.25894764 -0.14434953 1.1570001 255 255 180 255
-0.25674382 -0.14434953 1.1570001 255 255 180 255
-0.25454003 -0.14434953 1.1570001 255 255 180 255
-0.2523362 -0.14434953 1.1570001 255 255 180 255
-0.25013238 -0.14434953 1.1570001 255 255 180 255
-0.24792857 -0.14434953 1.1570001 255 255 180 255
-0.24572478 -0.14434953 1.1570001 255 255 180 255
-0.24352098 -0.14434953 1.1570001 255 255 180 255
-0.24131715 -0.14434953 1.1570001 255 255 180 255
-0.23828667 -0.14385048 1.153 255 255 180 255
-0.23609048 -0.14385048 1.153 255 255 180 255
-0.23389429 -0.14385048 1.153 255 255 180 255
-0.2316981 -0.14385048 1.153 255 255 180 255
-0.23029812 -0.14434953 1.1570001 255 255 180 255
-0.26115143 -0.14214572 1.1570001 255 255 180 255
-0.25894764 -0.14214572 1.1570001 255 255 180 255
-0.25674382 -0.14214572 1.1570001 255 255 180 255
-0.25454003 -0.14214572 1.1570001 255 255 180 255
-0.2523362 -0.14214572 1.1570001 255 255 180 255
-0.25013238 -0.14214572 1.1570001 255 255 180 255
-0.24792857 -0.14214572 1.1570001 255 255 180 255
-0.24572478 -0.14214572 1.1570001 255 255 180 255
-0.24352098 -0.14214572 1.1570001 255 255 180 255
-0.24131715 -0.14214572 1.1570001 255 255 180 255
-0.23911335 -0.14214572 1.1570001 255 255 180 255
-0.23690954 -0.14214572 1.1570001 255 255 180 255
-0.23389429 -0.14165428 1.153 255 255 180 255
-0.2316981 -0.14165428 1.153 255 255 180 255
-0.23029812 -0.14214572 1.1570001 255 255 180 255
-0.22888285 -0.14263713 1.161 255 255 180 255
-0.22667143 -0.14263713 1.161 255 255 180 255
-0.26335526 -0.13994192 1.1570001 255 255 180 255
-0.26115143 -0.13994192 1.1570001 255 255 180 255
-0.25894764 -0.13994192 1.1570001 255 255 180 255
-0.25674382 -0.13994192 1.1570001 255 255 180 255
-0.25454003 -0.13994192 1.1570001 255 255 180 255
-0.2523362 -0.13994192 1.1570001 255 255 180 255
-0.25013238 -0.13994192 1.1570001 255 255 180 255
-0.24792857 -0.13994192 1.1570001 255 255 180 255
-0.24572478 -0.13994192 1.1570001 255 255 180 255
-0.24352098 -0.13994192 1.1570001 255 255 180 255
-0.24131715 -0.13994192 1.1570001 255 255 180 255
-0.23911335 -0.13994192 1.1570001 255 255 180 255
-0.23690954 -0.13994192 1.1570001 255 255 180 255
-0.23470572 -0.13994192 1.1570001 255 255 180 255
-0.23250191 -0.13994192 1.1570001 255 255 180 255
-0.23109429 -0.14042571 1.161 255 255 180 255
-0.22888285 -0.14042571 1.161 255 255 180 255
-0.22667143 -0.14042571 1.161 255 255 180 255
-0.22445999 -0.14042571 1.161 255 255 180 255
-0.26244473 -0.1372619 1.153 255 255 180 255
-0.26024854 -0.1372619 1.153 255 255 180 255
-0.25805238 -0.1372619 1.153 255 255 180 255
-0.25674382 -0.13773811 1.1570001 255 255 180 255
-0.25454003 -0.13773811 1.1570001 255 255 180 255
-0.2523362 -0.13773811 1.1570001 255 255 180 255
-0.25013238 -0.13773811 1.1570001 255 255 180 255
-0.24792857 -0.13773811 1.1570001 255 255 180 255
-0.24487522 -0.1372619 1.153 255 255 180 255
-0.24267904 -0.1372619 1.153 255 255 180 255
-0.24131715 -0.13773811 1.1570001 255 255 180 255
-0.23911335 -0.13773811 1.1570001 255 255 180 255
-0.23690954 -0.13773811 1.1570001 255 255 180 255
-0.23470572 -0.13773811 1.1570001 255 255 180 255
-0.23250191 -0.13773811 1.1570001 255 255 180 255
-0.23109429 -0.13821429 1.161 255 255 180 255
-0.22888285 -0.13821429 1.161 255 255 180 255
-0.22667143 -0.13821429 1.161 255 255 180 255
-0.22445999 -0.13821429 1.161 255 255 180 255
-0.26244473 -0.13506572 1.153 255 255 180 255
-0.26024854 -0.13506572 1.153 255 255 180 255
-0.25805238 -0.13506572 1.153 255 255 180 255
-0.25585619 -0.13506572 1.153 255 255 180 255
-0.25365999 -0.13506572 1.153 255 255 180 255
-0.2514638 -0.13506572 1.153 255 255 180 255
-0.24926761 -0.13506572 1.153 255 255 180 255
-0.24707142 -0.13506572 1.153 255 255 180 255
-0.24487522 -0.13506572 1.153 255 255 180 255
-0.24267904 -0.13506572 1.153 255 255 180 255
-0.24131715 -0.13553429 1.1570001 255 255 180 255
-0.23911335 -0.13553429 1.1570001 255 255 180 255
-0.23690954 -0.13553429 1.1570001 255 255 180 255
-0.23470572 -0.13553429 1.1570001 255 255 180 255
-0.23250191 -0.13553429 1.1570001 255 255 180 255
-0.23109429 -0.13600287 1.161 255 255 180 255
-0.22888285 -0.13600287 1.161 255 255 180 255
-0.22667143 -0.13600287 1.161 255 255 180 255
-0.22445999 -0.13600287 1.161 255 255 180 255
-0.22301431 -0.13647144 1.1650001 255 255 180 255
-0.26244473 -0.13286953 1.153 255 255 180 255
-0.26024854 -0.13286953 1.153 255 255 180 255
-0.25805238 -0.13286953 1.153 255 255 180 255
-0.25585619 -0.13286953 1.153 255 255 180 255
-0.25365999 -0.13286953 1.153 255 255 180 255
-0.2514638 -0.13286953 1.153 255 255 180 255
-0.24926761 -0.13286953 1.153 255 255 180 255
-0.24707142 -0.13286953 1.153 255 255 180 255
-0.24487522 -0.13286953 1.153 255 255 180 255
-0.24267904 -0.13286953 1.153 255 255 180 255
-0.24048285 -0.13286953 1.153 255 255 180 255
-0.23911335 -0.13333048 1.1570001 255 255 180 255
-0.23690954 -0.13333048 1.1570001 255 255 180 255
-0.23551714 -0.13379143 1.161 255 255 180 255
-0.23330572 -0.13379143 1.161 255 255 180 255
-0.23189048 -0.13425238 1.1650001 255 255 180 255
-0.22967143 -0.13425238 1.1650001 255 255 180 255
-0.2274524 -0.13425238 1.1650001 255 255 180 255
-0.22523335 -0.13425238 1.1650001 255 255 180 255
-0.22301431 -0.13425238 1.1650001 255 255 180 255
-0.26115143 -0.13112667 1.1570001 255 255 180 255
-0.25894764 -0.13112667 1.1570001 255 255 180 255
-0.25674382 -0.13112667 1.1570001 255 255 180 255
-0.25365999 -0.13067333 1.153 255 255 180 255
-0.2514638 -0.13067333 1.153 255 255 180 255
-0.24926761 -0.13067333 1.153 255 255 180 255
-0.24707142 -0.13067333 1.153 255 255 180 255
-0.24487522 -0.13067333 1.153 255 255 180 255
-0.24267904 -0.13067333 1.153 255 255 180 255
-0.24048285 -0.13067333 1.153 255 255 180 255
-0.23911335 -0.13112667 1.1570001 255 255 180 255
-0.23690954 -0.13112667 1.1570001 255 255 180 255
-0.23551714 -0.13158 1.161 255 255 180 255
-0.23330572 -0.13158 1.161 255 255 180 255
-0.23189048 -0.13203335 1.1650001 255 255 180 255
-0.22967143 -0.13203335 1.1650001 255 255 180 255
-0.2274524 -0.13203335 1.1650001 255 255 180 255
-0.22523335 -0.13203335 1.1650001 255 255 180 255
-0.22301431 -0.13203335 1.1650001 255 255 180 255
-0.26115143 -0.12892286 1.1570001 255 255 180 255
-0.25894764 -0.12892286 1.1570001 255 255 180 255
-0.25674382 -0.12892286 1.1570001 255 255 180 255
-0.25365999 -0.12847714 1.153 255 255 180 255
-0.2514638 -0.12847714 1.153 255 255 180 255
-0.24926761 -0.12847714 1.153 255 255 180 255
-0.24707142 -0.12847714 1.153 255 255 180 255
-0.24487522 -0.12847714 1.153 255 255 180 255
-0.24267904 -0.12847714 1.153 255 255 180 255
-0.24048285 -0.12847714 1.153 255 255 180 255
-0.23911335 -0.12892286 1.1570001 255 255 180 255
-0.23690954 -0.12892286 1.1570001 255 255 180 255
-0.23551714 -0.12936857 1.161 255 255 180 255
-0.23330572 -0.12936857 1.161 255 255 180 255
-0.23189048 -0.1298143 1.1650001 255 255 180 255
-0.22967143 -0.1298143 1.1650001 255 255 180 255
-0.2274524 -0.1298143 1.1650001 255 255 180 255
-0.22523335 -0.1298143 1.1650001 255 255 180 255
-0.22301431 -0.1298143 1.1650001 255 255 180 255
-0.26115143 -0.12671906 1.1570001 255 255 180 255
-0.25894764 -0.12671906 1.1570001 255 255 180 255
-0.25674382 -0.12671906 1.1570001 255 255 180 255
-0.25365999 -0.12628095 1.153 255 255 180 255
-0.2514638 -0.12628095 1.153 255 255 180 255
-0.24926761 -0.12628095 1.153 255 255 180 255
-0.24707142 -0.12628095 1.153 255 255 180 255
-0.24487522 -0.12628095 1.153 255 255 180 255
-0.24267904 -0.12628095 1.153 255 255 180 255
-0.24048285 -0.12628095 1.153 255 255 180 255
-0.23911335 -0.12671906 1.1570001 255 255 180 255
-0.23690954 -0.12671906 1.1570001 255 255 180 255
-0.23551714 -0.12715714 1.161 255 255 180 255
-0.23330572 -0.12715714 1.161 255 255 180 255
-0.23189048 -0.12759525 1.1650001 255 255 180 255
-0.22967143 -0.12759525 1.1650001 255 255 180 255
-0.22823334 -0.12803333 1.169 255 255 180 255
-0.22600667 -0.12803333 1.169 255 255 180 255
-0.22378001 -0.12803333 1.169 255 255 180 255
-0.26205429 -0.12494572 1.161 255 255 180 255
-0.25894764 -0.12451525 1.1570001 255 255 180 255
-0.25674382 -0.12451525 1.1570001 255 255 180 255
-0.25365999 -0.12408476 1.153 255 255 180 255
-0.2514638 -0.12408476 1.153 255 255 180 255
-0.24926761 -0.12408476 1.153 255 255 180 255
-0.24707142 -0.12408476 1.153 255 255 180 255
-0.24487522 -0.12408476 1.153 255 255 180 255
-0.24267904 -0.12408476 1.153 255 255 180 255
-0.24048285 -0.12408476 1.153 255 255 180 255
-0.23911335 -0.12451525 1.1570001 255 255 180 255
-0.23690954 -0.12451525 1.1570001 255 255 180 255
-0.23551714 -0.12494572 1.161 255 255 180 255
-0.23330572 -0.12494572 1.161 255 255 180 255
-0.23189048 -0.12537619 1.1650001 255 255 180 255
-0.22967143 -0.12537619 1.1650001 255 255 180 255
-0.22823334 -0.12580666 1.169 255 255 180 255
-0.22600667 -0.12580666 1.169 255 255 180 255
-0.22378001 -0.12580666 1.169 255 255 180 255
-0.26205429 -0.12273429 1.161 255 255 180 255
-0.25894764 -0.12231143 1.1570001 255 255 180 255
-0.25674382 -0.12231143 1.1570001 255 255 180 255
-0.25454003 -0.12231143 1.1570001 255 255 180 255
-0.2514638 -0.12188857 1.153 255 255 180 255
-0.24926761 -0.12188857 1.153 255 255 180 255
-0.24707142 -0.12188857 1.153 255 255 180 255
-0.24487522 -0.12188857 1.153 255 255 180 255
-0.24267904 -0.12188857 1.153 255 255 180 255
-0.24131715 -0.12231143 1.1570001 255 255 180 255
-0.23911335 -0.12231143 1.1570001 255 255 180 255
-0.23772858 -0.12273429 1.161 255 255 180 255
-0.23551714 -0.12273429 1.161 255 255 180 255
-0.23410954 -0.12315714 1.1650001 255 255 180 255
-0.23189048 -0.12315714 1.1650001 255 255 180 255
-0.23046 -0.12358 1.169 255 255 180 255
-0.22823334 -0.12358 1.169 255 255 180 255
-0.22600667 -0.12358 1.169 255 255 180 255
-0.22378001 -0.12358 1.169 255 255 180 255
-0.26386002 -0.12135334 1.169 255 255 180 255
-0.25984284 -0.12052286 1.161 255 255 180 255
-0.25763142 -0.12052286 1.161 255 255 180 255
-0.25542 -0.12052286 1.161 255 255 180 255
-0.2523362 -0.12010762 1.1570001 255 255 180 255
-0.25013238 -0.12010762 1.1570001 255 255 180 255
-0.24792857 -0.12010762 1.1570001 255 255 180 255
-0.24572478 -0.12010762 1.1570001 255 255 180 255
-0.24352098 -0.12010762 1.1570001 255 255 180 255
-0.24215142 -0.12052286 1.161 255 255 180 255
-0.23993999 -0.12052286 1.161 255 255 180 255
-0.23772858 -0.12052286 1.161 255 255 180 255
-0.23632859 -0.1209381 1.1650001 255 255 180 255
-0.23410954 -0.1209381 1.1650001 255 255 180 255
-0.23268667 -0.12135334 1.169 255 255 180 255
-0.23046 -0.12135334 1.169 255 255 180 255
-0.22901431 -0.12176858 1.1730001 255 255 180 255
-0.22678001 -0.12176858 1.1730001 255 255 180 255
-0.22454573 -0.12176858 1.1730001 255 255 180 255
-0.26386002 -0.11912666 1.169 255 255 180 255
-0.2607381 -0.11871905 1.1650001 255 255 180 255
-0.25763142 -0.11831143 1.161 255 255 180 255
-0.25542 -0.11831143 1.161 255 255 180 255
-0.25320855 -0.11831143 1.161 255 255 180 255
-0.25099713 -0.11831143 1.161 255 255 180 255
-0.24792857 -0.11790381 1.1570001 255 255 180 255
-0.24572478 -0.11790381 1.1570001 255 255 180 255
-0.24436285 -0.11831143 1.161 255 255 180 255
-0.24215142 -0.11831143 1.161 255 255 180 255
-0.24076669 -0.11871905 1.1650001 255 255 180 255
-0.23854764 -0.11871905 1.1650001 255 255 180 255
-0.23632859 -0.11871905 1.1650001 255 255 180 255
-0.23410954 -0.11871905 1.1650001 255 255 180 255
-0.23268667 -0.11912666 1.169 255 255 180 255
-0.23046 -0.11912666 1.169 255 255 180 255
-0.22901431 -0.11953429 1.1730001 255 255 180 255
-0.22678001 -0.11953429 1.1730001 255 255 180 255
-0.26476288 -0.1173 1.1730001 255 255 180 255
-0.2607381 -0.11650001 1.1650001 255 255 180 255
-0.25851905 -0.11650001 1.1650001 255 255 180 255
-0.2563 -0.11650001 1.1650001 255 255 180 255
-0.25408095 -0.11650001 1.1650001 255 255 180 255
-0.25099713 -0.1161 1.161 255 255 180 255
-0.24878572 -0.1161 1.161 255 255 180 255
-0.2465743 -0.1161 1.161 255 255 180 255
-0.24436285 -0.1161 1.161 255 255 180 255
-0.24298574 -0.11650001 1.1650001 255 255 180 255
-0.24076669 -0.11650001 1.1650001 255 255 180 255
-0.23854764 -0.11650001 1.1650001 255 255 180 255
-0.23632859 -0.11650001 1.1650001 255 255 180 255
-0.23491335 -0.1169 1.169 255 255 180 255
-0.23268667 -0.1169 1.169 255 255 180 255
-0.23124859 -0.1173 1.1730001 255 255 180 255
-0.22901431 -0.1173 1.1730001 255 255 180 255
-0.22755334 -0.1177 1.177 255 255 180 255
-0.26163334 -0.11467334 1.169 255 255 180 255
-0.25851905 -0.11428096 1.1650001 255 255 180 255
-0.2563 -0.11428096 1.1650001 255 255 180 255
-0.25408095 -0.11428096 1.1650001 255 255 180 255
-0.25186193 -0.11428096 1.1650001 255 255 180 255
-0.24964288 -0.11428096 1.1650001 255 255 180 255
-0.24742381 -0.11428096 1.1650001 255 255 180 255
-0.24520479 -0.11428096 1.1650001 255 255 180 255
-0.24298574 -0.11428096 1.1650001 255 255 180 255
-0.24076669 -0.11428096 1.1650001 255 255 180 255
-0.23854764 -0.11428096 1.1650001 255 255 180 255
-0.23714 -0.11467334 1.169 255 255 180 255
-0.23491335 -0.11467334 1.169 255 255 180 255
-0.23348287 -0.11506572 1.1730001 255 255 180 255
-0.23124859 -0.11506572 1.1730001 255 255 180 255
-0.22979523 -0.11545809 1.177 255 255 180 255
-0.22755334 -0.11545809 1.177 255 255 180 255
-0.2563 -0.11206191 1.1650001 255 255 180 255
-0.25408095 -0.11206191 1.1650001 255 255 180 255
-0.25186193 -0.11206191 1.1650001 255 255 180 255
-0.24964288 -0.11206191 1.1650001 255 255 180 255
-0.24742381 -0.11206191 1.1650001 255 255 180 255
-0.24520479 -0.11206191 1.1650001 255 255 180 255
-0.24298574 -0.11206191 1.1650001 255 255 180 255
-0.24076669 -0.11206191 1.1650001 255 255 180 255
-0.23936667 -0.11244667 1.169 255 255 180 255
-0.23714 -0.11244667 1.169 255 255 180 255
-0.23571716 -0.11283144 1.1730001 255 255 180 255
-0.23348287 -0.11283144 1.1730001 255 255 180 255
-0.23203714 -0.1132162 1.177 255 255 180 255
-0.23057622 -0.11360096 1.1810001 255 255 180 255
-0.25495335 -0.11022 1.169 255 255 180 255
-0.25272667 -0.11022 1.169 255 255 180 255
-0.25049999 -0.11022 1.169 255 255 180 255
-0.24742381 -0.10984286 1.1650001 255 255 180 255
-0.24520479 -0.10984286 1.1650001 255 255 180 255
-0.24382001 -0.11022 1.169 255 255 180 255
-0.24159333 -0.11022 1.169 255 255 180 255
-0.23936667 -0.11022 1.169 255 255 180 255
-0.23714 -0.11022 1.169 255 255 180 255
-0.23571716 -0.11059715 1.1730001 255 255 180 255
-0.23348287 -0.11059715 1.1730001 255 255 180 255
-0.23203714 -0.11097429 1.177 255 255 180 255
-0.25272667 -0.10799333 1.169 255 255 180 255
-0.25049999 -0.10799333 1.169 255 255 180 255
-0.24827334 -0.10799333 1.169 255 255 180 255
-0.24604666 -0.10799333 1.169 255 255 180 255
-0.24465431 -0.10836286 1.1730001 255 255 180 255
-0.24242002 -0.10836286 1.1730001 255 255 180 255
-0.24018574 -0.10836286 1.1730001 255 255 180 255
-0.23795144 -0.10836286 1.1730001 255 255 180 255
-0.23571716 -0.10836286 1.1730001 255 255 180 255
-0.23427905 -0.10873239 1.177 255 255 180 255
-0.26106 -0.1083 1.197 255 255 180 255
-0.25791523 -0.1079381 1.1930001 255 255 180 255
-0.25307146 -0.10685239 1.1810001 255 255 180 255
-0.24997239 -0.10649048 1.177 255 255 180 255
-0.24773048 -0.10649048 1.177 255 255 180 255
-0.24548857 -0.10649048 1.177 255 255 180 255
-0.24324667 -0.10649048 1.177 255 255 180 255
-0.24100477 -0.10649048 1.177 255 255 180 255
-0.23876286 -0.10649048 1.177 255 255 180 255
-0.23732479 -0.10685239 1.1810001 255 255 180 255
-0.25878 -0.10602 1.197 255 255 180 255
-0.25650001 -0.10602 1.197 255 255 180 255
-0.25337049 -0.10566572 1.1930001 255 255 180 255
-0.25025621 -0.10531143 1.189 255 255 180 255
-0.24715716 -0.10495715 1.1850001 255 255 180 255
-0.24490002 -0.10495715 1.1850001 255 255 180 255
-0.24264286 -0.10495715 1.1850001 255 255 180 255
-0.2420086 -0.10566572 1.1930001 255 255 180 255
-0.23973621 -0.10566572 1.1930001 255 255 180 255
-0.26072574 -0.10452001 1.2060001 255 255 180 255
-0.25757143 -0.10417333 1.202 255 255 180 255
-0.2552819 -0.10417333 1.202 255 255 180 255
-0.25194001 -0.10374 1.197 255 255 180 255
-0.24966 -0.10374 1.197 255 255 180 255
-0.24737999 -0.10374 1.197 255 255 180 255
-0.24510001 -0.10374 1.197 255 255 180 255
-0.25613144 -0.10222286 1.2060001 255 255 180 255
-0.25383431 -0.10222286 1.2060001 255 255 180 255
-0.25153714 -0.10222286 1.2060001 255 255 180 255
0 0 0 1 0 0 0 1 0 0 0 1 0 0 0 0 0 365 1 0 0
