ply
format ascii 1.0
comment PCL generated
element vertex 990
property float x
property float y
property float z
property uchar red
property uchar green
property uchar blue
property uchar alpha
element camera 0
property float view_px
property float view_py
property float view_pz
property float x_axisx
property float x_axisy
property float x_axisz
property float y_axisx
property float y_axisy
property float y_axisz
property float z_axisx
property float z_axisy
property float z_axisz
property float focal
property float scalex
property float scaley
property float centerx
property float centery
property int viewportx
property int viewporty
property float k1
property float k2
end_header
-0.024313334 -0.1880562 0.52100003 77 175 74 255
-0.023320954 -0.1880562 0.52100003 77 175 74 255
-0.022328572 -0.1880562 0.52100003 77 175 74 255
-0.021336192 -0.1880562 0.52100003 77 175 74 255
-0.02034381 -0.1880562 0.52100003 77 175 74 255
-0.019351428 -0.1880562 0.52100003 77 175 74 255
-0.018359048 -0.1880562 0.52100003 77 175 74 255
-0.017366666 -0.1880562 0.52100003 77 175 74 255
-0.13559809 -0.18455048 0.514 77 175 74 255
-0.13461906 -0.18455048 0.514 77 175 74 255
-0.13364001 -0.18455048 0.514 77 175 74 255
-0.13266096 -0.18455048 0.514 77 175 74 255
-0.1316819 -0.18455048 0.514 77 175 74 255
-0.13070287 -0.18455048 0.514 77 175 74 255
-0.12972382 -0.18455048 0.514 77 175 74 255
-0.12849429 -0.18419142 0.51300001 77 175 74 255
-0.12751715 -0.18419142 0.51300001 77 175 74 255
-0.12654001 -0.18419142 0.51300001 77 175 74 255
-0.12556286 -0.18419142 0.51300001 77 175 74 255
-0.12458572 -0.18419142 0.51300001 77 175 74 255
-0.12360857 -0.18419142 0.51300001 77 175 74 255
-0.12287047 -0.18455048 0.514 77 175 74 255
-0.12189142 -0.18455048 0.514 77 175 74 255
-0.12091238 -0.18455048 0.514 77 175 74 255
-0.11993333 -0.18455048 0.514 77 175 74 255
-0.11895429 -0.18455048 0.514 77 175 74 255
-0.13042572 -0.2057343 0.57300001 77 175 74 255
-0.1293343 -0.2057343 0.57300001 77 175 74 255
-0.12824285 -0.2057343 0.57300001 77 175 74 255
-0.12692952 -0.20537525 0.57200003 77 175 74 255
-0.12584001 -0.20537525 0.57200003 77 175 74 255
-0.12496858 -0.2057343 0.57300001 77 175 74 255
-0.12387714 -0.2057343 0.57300001 77 175 74 255
-0.12278572 -0.2057343 0.57300001 77 175 74 255
-0.12169428 -0.2057343 0.57300001 77 175 74 255
-0.11744572 -0.20034859 0.55800003 77 175 74 255
-0.11638286 -0.20034859 0.55800003 77 175 74 255
-0.11532 -0.20034859 0.55800003 77 175 74 255
-0.11425715 -0.20034859 0.55800003 77 175 74 255
-0.11319429 -0.20034859 0.55800003 77 175 74 255
-0.11213143 -0.20034859 0.55800003 77 175 74 255
-0.11106858 -0.20034859 0.55800003 77 175 74 255
-0.10980858 -0.19998953 0.55700004 77 175 74 255
-0.10874762 -0.19998953 0.55700004 77 175 74 255
-0.10788 -0.20034859 0.55800003 77 175 74 255
-0.10681715 -0.20034859 0.55800003 77 175 74 255
-0.10594381 -0.20070763 0.55900002 77 175 74 255
-0.10487904 -0.20070763 0.55900002 77 175 74 255
-0.10399999 -0.20106666 0.56 77 175 74 255
-0.10366858 -0.20250286 0.56400001 77 175 74 255
-0.10277619 -0.20286191 0.565 77 175 74 255
-0.10169999 -0.20286191 0.565 77 175 74 255
-0.10062381 -0.20286191 0.565 77 175 74 255
-0.099547617 -0.20286191 0.565 77 175 74 255
-0.098471425 -0.20286191 0.565 77 175 74 255
-0.097222857 -0.20250286 0.56400001 77 175 74 255
-0.09563715 -0.20142573 0.56100005 77 175 74 255
-0.094062865 -0.20034859 0.55800003 77 175 74 255
-0.092666678 -0.19963048 0.55600005 77 175 74 255
-0.091278099 -0.19891238 0.55400002 77 175 74 255
-0.090060003 -0.19855335 0.55300003 77 175 74 255
-0.088845722 -0.1981943 0.55200005 77 175 74 255
-0.087794289 -0.1981943 0.55200005 77 175 74 255
-0.086585715 -0.19783524 0.551 77 175 74 255
-0.085380957 -0.19747619 0.55000001 77 175 74 255
-0.084180005 -0.19711715 0.54900002 77 175 74 255
-0.082831435 -0.19639906 0.54700005 77 175 74 255
-0.080892384 -0.19424476 0.54100001 77 175 74 255
-0.079714291 -0.19388571 0.54000002 77 175 74 255
-0.078685716 -0.19388571 0.54000002 77 175 74 255
-0.077657141 -0.19388571 0.54000002 77 175 74 255
-0.076628581 -0.19388571 0.54000002 77 175 74 255
-0.075600006 -0.19388571 0.54000002 77 175 74 255
-0.074571431 -0.19388571 0.54000002 77 175 74 255
-0.073542856 -0.19388571 0.54000002 77 175 74 255
-0.072514281 -0.19388571 0.54000002 77 175 74 255
-0.071485721 -0.19388571 0.54000002 77 175 74 255
-0.070457146 -0.19388571 0.54000002 77 175 74 255
-0.069428571 -0.19388571 0.54000002 77 175 74 255
-0.06852667 -0.19424476 0.54100001 77 175 74 255
-0.067620955 -0.19460382 0.54200006 77 175 74 255
-0.02927524 -0.18706381 0.52100003 77 175 74 255
-0.028282858 -0.18706381 0.52100003 77 175 74 255
-0.027290476 -0.18706381 0.52100003 77 175 74 255
-0.026298096 -0.18706381 0.52100003 77 175 74 255
-0.025305714 -0.18706381 0.52100003 77 175 74 255
-0.024313334 -0.18706381 0.52100003 77 175 74 255
-0.023320954 -0.18706381 0.52100003 77 175 74 255
-0.022328572 -0.18706381 0.52100003 77 175 74 255
-0.021336192 -0.18706381 0.52100003 77 175 74 255
-0.02034381 -0.18706381 0.52100003 77 175 74 255
-0.019351428 -0.18706381 0.52100003 77 175 74 255
-0.018359048 -0.18706381 0.52100003 77 175 74 255
-0.017366666 -0.18706381 0.52100003 77 175 74 255
-0.13559809 -0.18357143 0.514 77 175 74 255
-0.13461906 -0.18357143 0.514 77 175 74 255
-0.13364001 -0.18357143 0.514 77 175 74 255
-0.13266096 -0.18357143 0.514 77 175 74 255
-0.1316819 -0.18357143 0.514 77 175 74 255
-0.13070287 -0.18357143 0.514 77 175 74 255
-0.12947144 -0.18321428 0.51300001 77 175 74 255
-0.12849429 -0.18321428 0.51300001 77 175 74 255
-0.12751715 -0.18321428 0.51300001 77 175 74 255
-0.12629333 -0.18285716 0.51200002 77 175 74 255
-0.1253181 -0.18285716 0.51200002 77 175 74 255
-0.12458572 -0.18321428 0.51300001 77 175 74 255
-0.12360857 -0.18321428 0.51300001 77 175 74 255
-0.12263143 -0.18321428 0.51300001 77 175 74 255
-0.12189142 -0.18357143 0.514 77 175 74 255
-0.12091238 -0.18357143 0.514 77 175 74 255
-0.11993333 -0.18357143 0.514 77 175 74 255
-0.1293343 -0.20464286 0.57300001 77 175 74 255
-0.12824285 -0.20464286 0.57300001 77 175 74 255
-0.12692952 -0.20428573 0.57200003 77 175 74 255
-0.12584001 -0.20428573 0.57200003 77 175 74 255
-0.12496858 -0.20464286 0.57300001 77 175 74 255
-0.12387714 -0.20464286 0.57300001 77 175 74 255
-0.12278572 -0.20464286 0.57300001 77 175 74 255
-0.12169428 -0.20464286 0.57300001 77 175 74 255
-0.11765619 -0.19964285 0.55900002 77 175 74 255
-0.11638286 -0.19928573 0.55800003 77 175 74 255
-0.11532 -0.19928573 0.55800003 77 175 74 255
-0.11425715 -0.19928573 0.55800003 77 175 74 255
-0.11319429 -0.19928573 0.55800003 77 175 74 255
-0.11213143 -0.19928573 0.55800003 77 175 74 255
-0.11106858 -0.19928573 0.55800003 77 175 74 255
-0.11000571 -0.19928573 0.55800003 77 175 74 255
-0.10894287 -0.19928573 0.55800003 77 175 74 255
-0.10788 -0.19928573 0.55800003 77 175 74 255
-0.10681715 -0.19928573 0.55800003 77 175 74 255
-0.10613333 -0.2 0.56 77 175 74 255
-0.10506666 -0.2 0.56 77 175 74 255
-0.10418572 -0.20035715 0.56100005 77 175 74 255
-0.10366858 -0.20142856 0.56400001 77 175 74 255
-0.10277619 -0.20178571 0.565 77 175 74 255
-0.10169999 -0.20178571 0.565 77 175 74 255
-0.10062381 -0.20178571 0.565 77 175 74 255
-0.099547617 -0.20178571 0.565 77 175 74 255
-0.098471425 -0.20178571 0.565 77 175 74 255
-0.097050481 -0.20107144 0.56300002 77 175 74 255
-0.09563715 -0.20035715 0.56100005 77 175 74 255
-0.094062865 -0.19928573 0.55800003 77 175 74 255
-0.092666678 -0.19857144 0.55600005 77 175 74 255
-0.091278099 -0.19785714 0.55400002 77 175 74 255
-0.090060003 -0.19750001 0.55300003 77 175 74 255
-0.088845722 -0.19714287 0.55200005 77 175 74 255
-0.087635234 -0.19678572 0.551 77 175 74 255
-0.086585715 -0.19678572 0.551 77 175 74 255
-0.085380957 -0.19642857 0.55000001 77 175 74 255
-0.084180005 -0.19607145 0.54900002 77 175 74 255
-0.082831435 -0.19535716 0.54700005 77 175 74 255
-0.08104191 -0.19357145 0.54200006 77 175 74 255
-0.080009535 -0.19357145 0.54200006 77 175 74 255
-0.078831427 -0.19321428 0.54100001 77 175 74 255
-0.077800952 -0.19321428 0.54100001 77 175 74 255
-0.076770477 -0.19321428 0.54100001 77 175 74 255
-0.075740002 -0.19321428 0.54100001 77 175 74 255
-0.07470952 -0.19321428 0.54100001 77 175 74 255
-0.073542856 -0.19285716 0.54000002 77 175 74 255
-0.072514281 -0.19285716 0.54000002 77 175 74 255
-0.071485721 -0.19285716 0.54000002 77 175 74 255
-0.070457146 -0.19285716 0.54000002 77 175 74 255
-0.069428571 -0.19285716 0.54000002 77 175 74 255
-0.06852667 -0.19321428 0.54100001 77 175 74 255
-0.067620955 -0.19357145 0.54200006 77 175 74 255
-0.032314286 -0.18642858 0.52200001 77 175 74 255
-0.031260002 -0.18607144 0.52100003 77 175 74 255
-0.03026762 -0.18607144 0.52100003 77 175 74 255
-0.02927524 -0.18607144 0.52100003 77 175 74 255
-0.028282858 -0.18607144 0.52100003 77 175 74 255
-0.027290476 -0.18607144 0.52100003 77 175 74 255
-0.026298096 -0.18607144 0.52100003 77 175 74 255
-0.025305714 -0.18607144 0.52100003 77 175 74 255
-0.024313334 -0.18607144 0.52100003 77 175 74 255
-0.023320954 -0.18607144 0.52100003 77 175 74 255
-0.022328572 -0.18607144 0.52100003 77 175 74 255
-0.021336192 -0.18607144 0.52100003 77 175 74 255
-0.02034381 -0.18607144 0.52100003 77 175 74 255
-0.019351428 -0.18607144 0.52100003 77 175 74 255
-0.018359048 -0.18607144 0.52100003 77 175 74 255
-0.017366666 -0.18607144 0.52100003 77 175 74 255
-0.13638952 -0.18365809 0.51700002 77 175 74 255
-0.13461906 -0.18259238 0.514 77 175 74 255
-0.13364001 -0.18259238 0.514 77 175 74 255
-0.13266096 -0.18259238 0.514 77 175 74 255
-0.1316819 -0.18259238 0.514 77 175 74 255
-0.13070287 -0.18259238 0.514 77 175 74 255
-0.12947144 -0.18223713 0.51300001 77 175 74 255
-0.12849429 -0.18223713 0.51300001 77 175 74 255
-0.12751715 -0.18223713 0.51300001 77 175 74 255
-0.12629333 -0.18188192 0.51200002 77 175 74 255
-0.1253181 -0.18188192 0.51200002 77 175 74 255
-0.12458572 -0.18223713 0.51300001 77 175 74 255
-0.12360857 -0.18223713 0.51300001 77 175 74 255
-0.12263143 -0.18223713 0.51300001 77 175 74 255
-0.12189142 -0.18259238 0.514 77 175 74 255
-0.12091238 -0.18259238 0.514 77 175 74 255
-0.1293343 -0.20355143 0.57300001 77 175 74 255
-0.12824285 -0.20355143 0.57300001 77 175 74 255
-0.12692952 -0.2031962 0.57200003 77 175 74 255
-0.12584001 -0.2031962 0.57200003 77 175 74 255
-0.12475048 -0.2031962 0.57200003 77 175 74 255
-0.12366096 -0.2031962 0.57200003 77 175 74 255
-0.12257144 -0.2031962 0.57200003 77 175 74 255
-0.12169428 -0.20355143 0.57300001 77 175 74 255
-0.11744572 -0.19822288 0.55800003 77 175 74 255
-0.11638286 -0.19822288 0.55800003 77 175 74 255
-0.11532 -0.19822288 0.55800003 77 175 74 255
-0.11405239 -0.19786763 0.55700004 77 175 74 255
-0.11299143 -0.19786763 0.55700004 77 175 74 255
-0.11213143 -0.19822288 0.55800003 77 175 74 255
-0.11106858 -0.19822288 0.55800003 77 175 74 255
-0.11000571 -0.19822288 0.55800003 77 175 74 255
-0.10894287 -0.19822288 0.55800003 77 175 74 255
-0.10788 -0.19822288 0.55800003 77 175 74 255
-0.10681715 -0.19822288 0.55800003 77 175 74 255
-0.10594381 -0.19857809 0.55900002 77 175 74 255
-0.10506666 -0.19893333 0.56 77 175 74 255
-0.10418572 -0.19928859 0.56100005 77 175 74 255
-0.10348476 -0.19999905 0.56300002 77 175 74 255
-0.10277619 -0.20070952 0.565 77 175 74 255
-0.10169999 -0.20070952 0.565 77 175 74 255
-0.10062381 -0.20070952 0.565 77 175 74 255
-0.099547617 -0.20070952 0.565 77 175 74 255
-0.098471425 -0.20070952 0.565 77 175 74 255
-0.097050481 -0.19999905 0.56300002 77 175 74 255
-0.09563715 -0.19928859 0.56100005 77 175 74 255
-0.094062865 -0.19822288 0.55800003 77 175 74 255
-0.092666678 -0.19751239 0.55600005 77 175 74 255
-0.091278099 -0.19680192 0.55400002 77 175 74 255
-0.090060003 -0.19644667 0.55300003 77 175 74 255
-0.088845722 -0.19609144 0.55200005 77 175 74 255
-0.087635234 -0.19573618 0.551 77 175 74 255
-0.086585715 -0.19573618 0.551 77 175 74 255
-0.085380957 -0.19538096 0.55000001 77 175 74 255
-0.084180005 -0.19502573 0.54900002 77 175 74 255
-0.082982861 -0.19467048 0.54800004 77 175 74 255
-0.081340954 -0.19324954 0.54400003 77 175 74 255
-0.080157153 -0.19289429 0.54300004 77 175 74 255
-0.078977153 -0.19253907 0.54200006 77 175 74 255
-0.07794477 -0.19253907 0.54200006 77 175 74 255
-0.076912388 -0.19253907 0.54200006 77 175 74 255
-0.075880013 -0.19253907 0.54200006 77 175 74 255
-0.07470952 -0.19218381 0.54100001 77 175 74 255
-0.073542856 -0.19182858 0.54000002 77 175 74 255
-0.072514281 -0.19182858 0.54000002 77 175 74 255
-0.071485721 -0.19182858 0.54000002 77 175 74 255
-0.070457146 -0.19182858 0.54000002 77 175 74 255
-0.069428571 -0.19182858 0.54000002 77 175 74 255
-0.032314286 -0.1854343 0.52200001 77 175 74 255
-0.031260002 -0.18507905 0.52100003 77 175 74 255
-0.03026762 -0.18507905 0.52100003 77 175 74 255
-0.02927524 -0.18507905 0.52100003 77 175 74 255
-0.028282858 -0.18507905 0.52100003 77 175 74 255
-0.027290476 -0.18507905 0.52100003 77 175 74 255
-0.026298096 -0.18507905 0.52100003 77 175 74 255
-0.025305714 -0.18507905 0.52100003 77 175 74 255
-0.024313334 -0.18507905 0.52100003 77 175 74 255
-0.023320954 -0.18507905 0.52100003 77 175 74 255
-0.022328572 -0.18507905 0.52100003 77 175 74 255
-0.021336192 -0.18507905 0.52100003 77 175 74 255
-0.02034381 -0.18507905 0.52100003 77 175 74 255
-0.019351428 -0.18507905 0.52100003 77 175 74 255
-0.018359048 -0.18507905 0.52100003 77 175 74 255
-0.017366666 -0.18507905 0.52100003 77 175 74 255
-0.016437143 -0.18578951 0.523 77 175 74 255
-0.13638952 -0.18267334 0.51700002 77 175 74 255
-0.13461906 -0.18161333 0.514 77 175 74 255
-0.13364001 -0.18161333 0.514 77 175 74 255
-0.13266096 -0.18161333 0.514 77 175 74 255
-0.1316819 -0.18161333 0.514 77 175 74 255
-0.13044858 -0.18125999 0.51300001 77 175 74 255
-0.12947144 -0.18125999 0.51300001 77 175 74 255
-0.12824382 -0.18090667 0.51200002 77 175 74 255
-0.12726857 -0.18090667 0.51200002 77 175 74 255
-0.12629333 -0.18090667 0.51200002 77 175 74 255
-0.1253181 -0.18090667 0.51200002 77 175 74 255
-0.12434287 -0.18090667 0.51200002 77 175 74 255
-0.12336763 -0.18090667 0.51200002 77 175 74 255
-0.12263143 -0.18125999 0.51300001 77 175 74 255
-0.12189142 -0.18161333 0.514 77 175 74 255
-0.11993333 -0.18161333 0.514 77 175 74 255
-0.12910858 -0.20210667 0.57200003 77 175 74 255
-0.12801906 -0.20210667 0.57200003 77 175 74 255
-0.12670763 -0.20175335 0.57100004 77 175 74 255
-0.12562001 -0.20175335 0.57100004 77 175 74 255
-0.12475048 -0.20210667 0.57200003 77 175 74 255
-0.12366096 -0.20210667 0.57200003 77 175 74 255
-0.12257144 -0.20210667 0.57200003 77 175 74 255
-0.12148191 -0.20210667 0.57200003 77 175 74 255
-0.11744572 -0.19716001 0.55800003 77 175 74 255
-0.11638286 -0.19716001 0.55800003 77 175 74 255
-0.11532 -0.19716001 0.55800003 77 175 74 255
-0.11405239 -0.19680668 0.55700004 77 175 74 255
-0.11299143 -0.19680668 0.55700004 77 175 74 255
-0.11213143 -0.19716001 0.55800003 77 175 74 255
-0.11106858 -0.19716001 0.55800003 77 175 74 255
-0.11000571 -0.19716001 0.55800003 77 175 74 255
-0.10894287 -0.19716001 0.55800003 77 175 74 255
-0.10788 -0.19716001 0.55800003 77 175 74 255
-0.10681715 -0.19716001 0.55800003 77 175 74 255
-0.10594381 -0.19751334 0.55900002 77 175 74 255
-0.10506666 -0.19786666 0.56 77 175 74 255
-0.10399999 -0.19786666 0.56 77 175 74 255
-0.10348476 -0.19892667 0.56300002 77 175 74 255
-0.10277619 -0.19963333 0.565 77 175 74 255
-0.10169999 -0.19963333 0.565 77 175 74 255
-0.10062381 -0.19963333 0.565 77 175 74 255
-0.099547617 -0.19963333 0.565 77 175 74 255
-0.098471425 -0.19963333 0.565 77 175 74 255
-0.097050481 -0.19892667 0.56300002 77 175 74 255
-0.09563715 -0.19822001 0.56100005 77 175 74 255
-0.094062865 -0.19716001 0.55800003 77 175 74 255
-0.092666678 -0.19645335 0.55600005 77 175 74 255
-0.091278099 -0.19574668 0.55400002 77 175 74 255
-0.090060003 -0.19539334 0.55300003 77 175 74 255
-0.088845722 -0.19504002 0.55200005 77 175 74 255
-0.087635234 -0.19468667 0.551 77 175 74 255
-0.086585715 -0.19468667 0.551 77 175 74 255
-0.085380957 -0.19433333 0.55000001 77 175 74 255
-0.084333338 -0.19433333 0.55000001 77 175 74 255
-0.083134286 -0.19398001 0.54900002 77 175 74 255
-0.081490479 -0.19256668 0.54500002 77 175 74 255
-0.080304772 -0.19221334 0.54400003 77 175 74 255
-0.079122864 -0.19186002 0.54300004 77 175 74 255
-0.078088574 -0.19186002 0.54300004 77 175 74 255
-0.076912388 -0.19150668 0.54200006 77 175 74 255
-0.075880013 -0.19150668 0.54200006 77 175 74 255
-0.07470952 -0.19115333 0.54100001 77 175 74 255
-0.073679045 -0.19115333 0.54100001 77 175 74 255
-0.072514281 -0.19080001 0.54000002 77 175 74 255
-0.071485721 -0.19080001 0.54000002 77 175 74 255
-0.070457146 -0.19080001 0.54000002 77 175 74 255
-0.032376189 -0.18479334 0.523 77 175 74 255
-0.031260002 -0.18408668 0.52100003 77 175 74 255
-0.03026762 -0.18408668 0.52100003 77 175 74 255
-0.02927524 -0.18408668 0.52100003 77 175 74 255
-0.028282858 -0.18408668 0.52100003 77 175 74 255
-0.027290476 -0.18408668 0.52100003 77 175 74 255
-0.026298096 -0.18408668 0.52100003 77 175 74 255
-0.025305714 -0.18408668 0.52100003 77 175 74 255
-0.024313334 -0.18408668 0.52100003 77 175 74 255
-0.023320954 -0.18408668 0.52100003 77 175 74 255
-0.022328572 -0.18408668 0.52100003 77 175 74 255
-0.021336192 -0.18408668 0.52100003 77 175 74 255
-0.02034381 -0.18408668 0.52100003 77 175 74 255
-0.019388571 -0.18444 0.52200001 77 175 74 255
-0.018394286 -0.18444 0.52200001 77 175 74 255
-0.0174 -0.18444 0.52200001 77 175 74 255
-0.016437143 -0.18479334 0.523 77 175 74 255
-0.13817145 -0.18274288 0.52000004 77 175 74 255
-0.13638952 -0.18168858 0.51700002 77 175 74 255
-0.13488096 -0.18098573 0.51500005 77 175 74 255
-0.13390002 -0.18098573 0.51500005 77 175 74 255
-0.13266096 -0.18063429 0.514 77 175 74 255
-0.1316819 -0.18063429 0.514 77 175 74 255
-0.13044858 -0.18028285 0.51300001 77 175 74 255
-0.12947144 -0.18028285 0.51300001 77 175 74 255
-0.12824382 -0.17993143 0.51200002 77 175 74 255
-0.12726857 -0.17993143 0.51200002 77 175 74 255
-0.12629333 -0.17993143 0.51200002 77 175 74 255
-0.1253181 -0.17993143 0.51200002 77 175 74 255
-0.12434287 -0.17993143 0.51200002 77 175 74 255
-0.12336763 -0.17993143 0.51200002 77 175 74 255
-0.12910858 -0.20101714 0.57200003 77 175 74 255
-0.12801906 -0.20101714 0.57200003 77 175 74 255
-0.12670763 -0.20066573 0.57100004 77 175 74 255
-0.12540001 -0.2003143 0.57000005 77 175 74 255
-0.1243143 -0.2003143 0.57000005 77 175 74 255
-0.12344477 -0.20066573 0.57100004 77 175 74 255
-0.12235714 -0.20066573 0.57100004 77 175 74 255
-0.11893333 -0.19679999 0.56 77 175 74 255
-0.11765619 -0.19644858 0.55900002 77 175 74 255
-0.11638286 -0.19609715 0.55800003 77 175 74 255
-0.11532 -0.19609715 0.55800003 77 175 74 255
-0.11405239 -0.19574574 0.55700004 77 175 74 255
-0.11299143 -0.19574574 0.55700004 77 175 74 255
-0.11213143 -0.19609715 0.55800003 77 175 74 255
-0.11106858 -0.19609715 0.55800003 77 175 74 255
-0.11000571 -0.19609715 0.55800003 77 175 74 255
-0.10894287 -0.19609715 0.55800003 77 175 74 255
-0.10788 -0.19609715 0.55800003 77 175 74 255
-0.10681715 -0.19609715 0.55800003 77 175 74 255
-0.10613333 -0.19679999 0.56 77 175 74 255
-0.10506666 -0.19679999 0.56 77 175 74 255
-0.10399999 -0.19679999 0.56 77 175 74 255
-0.10366858 -0.19820571 0.56400001 77 175 74 255
-0.10277619 -0.19855714 0.565 77 175 74 255
-0.10169999 -0.19855714 0.565 77 175 74 255
-0.10062381 -0.19855714 0.565 77 175 74 255
-0.099547617 -0.19855714 0.565 77 175 74 255
-0.098471425 -0.19855714 0.565 77 175 74 255
-0.097222857 -0.19820571 0.56400001 77 175 74 255
-0.095807627 -0.19750287 0.56200004 77 175 74 255
-0.094400004 -0.19679999 0.56 77 175 74 255
-0.09283334 -0.19574574 0.55700004 77 175 74 255
-0.091278099 -0.19469143 0.55400002 77 175 74 255
-0.090060003 -0.19434001 0.55300003 77 175 74 255
-0.088845722 -0.19398859 0.55200005 77 175 74 255
-0.087794289 -0.19398859 0.55200005 77 175 74 255
-0.086585715 -0.19363715 0.551 77 175 74 255
-0.085536189 -0.19363715 0.551 77 175 74 255
-0.084486663 -0.19363715 0.551 77 175 74 255
-0.083285719 -0.1932857 0.55000001 77 175 74 255
-0.081789531 -0.19223145 0.54700005 77 175 74 255
-0.080599993 -0.19188 0.546 77 175 74 255
-0.079414286 -0.19152857 0.54500002 77 175 74 255
-0.078232385 -0.19117714 0.54400003 77 175 74 255
-0.077196196 -0.19117714 0.54400003 77 175 74 255
-0.076020002 -0.19082573 0.54300004 77 175 74 255
-0.074847631 -0.1904743 0.54200006 77 175 74 255
-0.073815241 -0.1904743 0.54200006 77 175 74 255
-0.032376189 -0.18379714 0.523 77 175 74 255
-0.031260002 -0.18309429 0.52100003 77 175 74 255
-0.03026762 -0.18309429 0.52100003 77 175 74 255
-0.02927524 -0.18309429 0.52100003 77 175 74 255
-0.028282858 -0.18309429 0.52100003 77 175 74 255
-0.027290476 -0.18309429 0.52100003 77 175 74 255
-0.026298096 -0.18309429 0.52100003 77 175 74 255
-0.025305714 -0.18309429 0.52100003 77 175 74 255
-0.024313334 -0.18309429 0.52100003 77 175 74 255
-0.023320954 -0.18309429 0.52100003 77 175 74 255
-0.022328572 -0.18309429 0.52100003 77 175 74 255
-0.021336192 -0.18309429 0.52100003 77 175 74 255
-0.02034381 -0.18309429 0.52100003 77 175 74 255
-0.019388571 -0.18344572 0.52200001 77 175 74 255
-0.018394286 -0.18344572 0.52200001 77 175 74 255
-0.017433334 -0.18379714 0.523 77 175 74 255
-0.016468573 -0.18414858 0.52400005 77 175 74 255
-0.13817145 -0.18175238 0.52000004 77 175 74 255
-0.13638952 -0.18070382 0.51700002 77 175 74 255
-0.13540477 -0.18070382 0.51700002 77 175 74 255
-0.13442001 -0.18070382 0.51700002 77 175 74 255
-0.13291906 -0.18000478 0.51500005 77 175 74 255
-0.1316819 -0.17965524 0.514 77 175 74 255
-0.13044858 -0.17930572 0.51300001 77 175 74 255
-0.12947144 -0.17930572 0.51300001 77 175 74 255
-0.12824382 -0.1789562 0.51200002 77 175 74 255
-0.12726857 -0.1789562 0.51200002 77 175 74 255
-0.12629333 -0.1789562 0.51200002 77 175 74 255
-0.1253181 -0.1789562 0.51200002 77 175 74 255
-0.12434287 -0.1789562 0.51200002 77 175 74 255
-0.12336763 -0.1789562 0.51200002 77 175 74 255
-0.12910858 -0.19992763 0.57200003 77 175 74 255
-0.12801906 -0.19992763 0.57200003 77 175 74 255
-0.12648572 -0.19922858 0.57000005 77 175 74 255
-0.12474 -0.19818 0.56700003 77 175 74 255
-0.12366 -0.19818 0.56700003 77 175 74 255
-0.12301237 -0.19887905 0.56900001 77 175 74 255
-0.12042858 -0.1964324 0.56200004 77 175 74 255
-0.11893333 -0.19573334 0.56 77 175 74 255
-0.11765619 -0.1953838 0.55900002 77 175 74 255
-0.11659143 -0.1953838 0.55900002 77 175 74 255
-0.11532 -0.1950343 0.55800003 77 175 74 255
-0.11425715 -0.1950343 0.55800003 77 175 74 255
-0.11319429 -0.1950343 0.55800003 77 175 74 255
-0.11213143 -0.1950343 0.55800003 77 175 74 255
-0.11106858 -0.1950343 0.55800003 77 175 74 255
-0.11000571 -0.1950343 0.55800003 77 175 74 255
-0.10894287 -0.1950343 0.55800003 77 175 74 255
-0.10788 -0.1950343 0.55800003 77 175 74 255
-0.10681715 -0.1950343 0.55800003 77 175 74 255
-0.10594381 -0.1953838 0.55900002 77 175 74 255
-0.10506666 -0.19573334 0.56 77 175 74 255
-0.10399999 -0.19573334 0.56 77 175 74 255
-0.10385238 -0.19748095 0.565 77 175 74 255
-0.10277619 -0.19748095 0.565 77 175 74 255
-0.10169999 -0.19748095 0.565 77 175 74 255
-0.10062381 -0.19748095 0.565 77 175 74 255
-0.099547617 -0.19748095 0.565 77 175 74 255
-0.098471425 -0.19748095 0.565 77 175 74 255
-0.097222857 -0.19713144 0.56400001 77 175 74 255
-0.095807627 -0.1964324 0.56200004 77 175 74 255
-0.09456858 -0.19608288 0.56100005 77 175 74 255
-0.093000002 -0.1950343 0.55800003 77 175 74 255
-0.091278099 -0.19363619 0.55400002 77 175 74 255
-0.090060003 -0.19328669 0.55300003 77 175 74 255
-0.089006677 -0.19328669 0.55300003 77 175 74 255
-0.087794289 -0.19293715 0.55200005 77 175 74 255
-0.086742863 -0.19293715 0.55200005 77 175 74 255
-0.085536189 -0.19258761 0.551 77 175 74 255
-0.084486663 -0.19258761 0.551 77 175 74 255
-0.083437145 -0.19258761 0.551 77 175 74 255
-0.082238093 -0.19223809 0.55000001 77 175 74 255
-0.080747627 -0.19118954 0.54700005 77 175 74 255
-0.079560004 -0.19084001 0.546 77 175 74 255
-0.07852 -0.19084001 0.546 77 175 74 255
-0.078047626 -0.19223809 0.55000001 77 175 74 255
-0.077280007 -0.19293715 0.55200005 77 175 74 255
-0.031260002 -0.18210192 0.52100003 77 175 74 255
-0.030209526 -0.18175238 0.52000004 77 175 74 255
-0.02921905 -0.18175238 0.52000004 77 175 74 255
-0.028228574 -0.18175238 0.52000004 77 175 74 255
-0.027238097 -0.18175238 0.52000004 77 175 74 255
-0.026298096 -0.18210192 0.52100003 77 175 74 255
-0.025305714 -0.18210192 0.52100003 77 175 74 255
-0.024313334 -0.18210192 0.52100003 77 175 74 255
-0.023320954 -0.18210192 0.52100003 77 175 74 255
-0.022328572 -0.18210192 0.52100003 77 175 74 255
-0.021336192 -0.18210192 0.52100003 77 175 74 255
-0.02034381 -0.18210192 0.52100003 77 175 74 255
-0.019388571 -0.18245143 0.52200001 77 175 74 255
-0.018429523 -0.18280095 0.523 77 175 74 255
-0.017466668 -0.18315049 0.52400005 77 175 74 255
-0.13691716 -0.18041429 0.51900005 77 175 74 255
-0.13592859 -0.18041429 0.51900005 77 175 74 255
-0.13494001 -0.18041429 0.51900005 77 175 74 255
-0.13291906 -0.17902383 0.51500005 77 175 74 255
-0.1316819 -0.17867619 0.514 77 175 74 255
-0.13044858 -0.17832857 0.51300001 77 175 74 255
-0.12947144 -0.17832857 0.51300001 77 175 74 255
-0.12824382 -0.17798096 0.51200002 77 175 74 255
-0.12726857 -0.17798096 0.51200002 77 175 74 255
-0.12629333 -0.17798096 0.51200002 77 175 74 255
-0.1253181 -0.17798096 0.51200002 77 175 74 255
-0.12434287 -0.17798096 0.51200002 77 175 74 255
-0.12336763 -0.17798096 0.51200002 77 175 74 255
-0.12239239 -0.17798096 0.51200002 77 175 74 255
-0.12779525 -0.19849049 0.57100004 77 175 74 255
-0.12648572 -0.19814287 0.57000005 77 175 74 255
-0.12452002 -0.19675238 0.56600004 77 175 74 255
-0.12344192 -0.19675238 0.56600004 77 175 74 255
-0.12193143 -0.19605714 0.56400001 77 175 74 255
-0.12042858 -0.19536193 0.56200004 77 175 74 255
-0.11914572 -0.1950143 0.56100005 77 175 74 255
-0.11786667 -0.19466665 0.56 77 175 74 255
-0.1168 -0.19466665 0.56 77 175 74 255
-0.11552667 -0.19431905 0.55900002 77 175 74 255
-0.11425715 -0.19397144 0.55800003 77 175 74 255
-0.11319429 -0.19397144 0.55800003 77 175 74 255
-0.11213143 -0.19397144 0.55800003 77 175 74 255
-0.11106858 -0.19397144 0.55800003 77 175 74 255
-0.11000571 -0.19397144 0.55800003 77 175 74 255
-0.10894287 -0.19397144 0.55800003 77 175 74 255
-0.10807334 -0.19431905 0.55900002 77 175 74 255
-0.10700857 -0.19431905 0.55900002 77 175 74 255
-0.10594381 -0.19431905 0.55900002 77 175 74 255
-0.10506666 -0.19466665 0.56 77 175 74 255
-0.10399999 -0.19466665 0.56 77 175 74 255
-0.10293333 -0.19466665 0.56 77 175 74 255
-0.10277619 -0.19640477 0.565 77 175 74 255
-0.10169999 -0.19640477 0.565 77 175 74 255
-0.10062381 -0.19640477 0.565 77 175 74 255
-0.099547617 -0.19640477 0.565 77 175 74 255
-0.098471425 -0.19640477 0.565 77 175 74 255
-0.097222857 -0.19605714 0.56400001 77 175 74 255
-0.095978096 -0.19570953 0.56300002 77 175 74 255
-0.09456858 -0.1950143 0.56100005 77 175 74 255
-0.093166672 -0.19431905 0.55900002 77 175 74 255
-0.091442853 -0.19292857 0.55500001 77 175 74 255
-0.090060003 -0.19223335 0.55300003 77 175 74 255
-0.088845722 -0.19188572 0.55200005 77 175 74 255
-0.087794289 -0.19188572 0.55200005 77 175 74 255
-0.086585715 -0.1915381 0.551 77 175 74 255
-0.085536189 -0.1915381 0.551 77 175 74 255
-0.084486663 -0.1915381 0.551 77 175 74 255
-0.083437145 -0.1915381 0.551 77 175 74 255
-0.082387611 -0.1915381 0.551 77 175 74 255
-0.081190474 -0.19119048 0.55000001 77 175 74 255
-0.079851434 -0.19049525 0.54800004 77 175 74 255
-0.07880763 -0.19049525 0.54800004 77 175 74 255
-0.078047626 -0.19119048 0.55000001 77 175 74 255
-0.077280007 -0.19188572 0.55200005 77 175 74 255
-0.031260002 -0.18110953 0.52100003 77 175 74 255
-0.030209526 -0.18076192 0.52000004 77 175 74 255
-0.02921905 -0.18076192 0.52000004 77 175 74 255
-0.028228574 -0.18076192 0.52000004 77 175 74 255
-0.027238097 -0.18076192 0.52000004 77 175 74 255
-0.026298096 -0.18110953 0.52100003 77 175 74 255
-0.025305714 -0.18110953 0.52100003 77 175 74 255
-0.024313334 -0.18110953 0.52100003 77 175 74 255
-0.023320954 -0.18110953 0.52100003 77 175 74 255
-0.022328572 -0.18110953 0.52100003 77 175 74 255
-0.021336192 -0.18110953 0.52100003 77 175 74 255
-0.02034381 -0.18110953 0.52100003 77 175 74 255
-0.019388571 -0.18145715 0.52200001 77 175 74 255
-0.018429523 -0.18180476 0.523 77 175 74 255
-0.017466668 -0.18215241 0.52400005 77 175 74 255
-0.13592859 -0.17942573 0.51900005 77 175 74 255
-0.13494001 -0.17942573 0.51900005 77 175 74 255
-0.13291906 -0.17804287 0.51500005 77 175 74 255
-0.1316819 -0.17769714 0.514 77 175 74 255
-0.13070287 -0.17769714 0.514 77 175 74 255
-0.12947144 -0.17735143 0.51300001 77 175 74 255
-0.12849429 -0.17735143 0.51300001 77 175 74 255
-0.12726857 -0.17700571 0.51200002 77 175 74 255
-0.12629333 -0.17700571 0.51200002 77 175 74 255
-0.1253181 -0.17700571 0.51200002 77 175 74 255
-0.12434287 -0.17700571 0.51200002 77 175 74 255
-0.12336763 -0.17700571 0.51200002 77 175 74 255
-0.12239239 -0.17700571 0.51200002 77 175 74 255
-0.12189142 -0.17769714 0.514 77 175 74 255
-0.12820572 -0.19636571 0.56800002 77 175 74 255
-0.12712382 -0.19636571 0.56800002 77 175 74 255
-0.12604192 -0.19636571 0.56800002 77 175 74 255
-0.12452002 -0.1956743 0.56600004 77 175 74 255
-0.12344192 -0.1956743 0.56600004 77 175 74 255
-0.12193143 -0.19498287 0.56400001 77 175 74 255
-0.12042858 -0.19429144 0.56200004 77 175 74 255
-0.11914572 -0.19394574 0.56100005 77 175 74 255
-0.11807715 -0.19394574 0.56100005 77 175 74 255
-0.1168 -0.1936 0.56 77 175 74 255
-0.11573333 -0.1936 0.56 77 175 74 255
-0.11446191 -0.19325429 0.55900002 77 175 74 255
-0.11339714 -0.19325429 0.55900002 77 175 74 255
-0.11233238 -0.19325429 0.55900002 77 175 74 255
-0.11126762 -0.19325429 0.55900002 77 175 74 255
-0.11020286 -0.19325429 0.55900002 77 175 74 255
-0.10913809 -0.19325429 0.55900002 77 175 74 255
-0.10807334 -0.19325429 0.55900002 77 175 74 255
-0.10700857 -0.19325429 0.55900002 77 175 74 255
-0.10594381 -0.19325429 0.55900002 77 175 74 255
-0.10525429 -0.19394574 0.56100005 77 175 74 255
-0.10455714 -0.19463715 0.56300002 77 175 74 255
-0.10385238 -0.19532856 0.565 77 175 74 255
-0.10295811 -0.1956743 0.56600004 77 175 74 255
-0.10188001 -0.1956743 0.56600004 77 175 74 255
-0.10080191 -0.1956743 0.56600004 77 175 74 255
-0.099547617 -0.19532856 0.565 77 175 74 255
-0.098471425 -0.19532856 0.565 77 175 74 255
-0.097222857 -0.19498287 0.56400001 77 175 74 255
-0.096148573 -0.19498287 0.56400001 77 175 74 255
-0.094905712 -0.19463715 0.56300002 77 175 74 255
-0.093500011 -0.19394574 0.56100005 77 175 74 255
-0.092101902 -0.19325429 0.55900002 77 175 74 255
-0.091037147 -0.19325429 0.55900002 77 175 74 255
-0.088845722 -0.1908343 0.55200005 77 175 74 255
-0.087794289 -0.1908343 0.55200005 77 175 74 255
-0.086585715 -0.19048858 0.551 77 175 74 255
-0.085536189 -0.19048858 0.551 77 175 74 255
-0.084486663 -0.19048858 0.551 77 175 74 255
-0.083437145 -0.19048858 0.551 77 175 74 255
-0.082387611 -0.19048858 0.551 77 175 74 255
-0.081190474 -0.19014287 0.55000001 77 175 74 255
-0.079851434 -0.18945144 0.54800004 77 175 74 255
-0.07880763 -0.18945144 0.54800004 77 175 74 255
-0.077763818 -0.18945144 0.54800004 77 175 74 255
-0.02921905 -0.17977144 0.52000004 77 175 74 255
-0.028228574 -0.17977144 0.52000004 77 175 74 255
-0.027238097 -0.17977144 0.52000004 77 175 74 255
-0.026298096 -0.18011716 0.52100003 77 175 74 255
-0.025305714 -0.18011716 0.52100003 77 175 74 255
-0.024313334 -0.18011716 0.52100003 77 175 74 255
-0.023320954 -0.18011716 0.52100003 77 175 74 255
-0.022328572 -0.18011716 0.52100003 77 175 74 255
-0.021336192 -0.18011716 0.52100003 77 175 74 255
-0.02034381 -0.18011716 0.52100003 77 175 74 255
-0.019351428 -0.18011716 0.52100003 77 175 74 255
-0.018394286 -0.18046287 0.52200001 77 175 74 255
-0.017433334 -0.18080857 0.523 77 175 74 255
-0.13494001 -0.17843716 0.51900005 77 175 74 255
-0.13291906 -0.17706193 0.51500005 77 175 74 255
-0.1316819 -0.1767181 0.514 77 175 74 255
-0.13070287 -0.1767181 0.514 77 175 74 255
-0.12947144 -0.17637429 0.51300001 77 175 74 255
-0.12849429 -0.17637429 0.51300001 77 175 74 255
-0.12726857 -0.17603049 0.51200002 77 175 74 255
-0.12629333 -0.17603049 0.51200002 77 175 74 255
-0.1253181 -0.17603049 0.51200002 77 175 74 255
-0.12434287 -0.17603049 0.51200002 77 175 74 255
-0.12336763 -0.17603049 0.51200002 77 175 74 255
-0.12263143 -0.17637429 0.51300001 77 175 74 255
-0.12189142 -0.1767181 0.514 77 175 74 255
-0.12820572 -0.19528382 0.56800002 77 175 74 255
-0.12712382 -0.19528382 0.56800002 77 175 74 255
-0.12604192 -0.19528382 0.56800002 77 175 74 255
-0.12452002 -0.1945962 0.56600004 77 175 74 255
-0.12344192 -0.1945962 0.56600004 77 175 74 255
-0.12193143 -0.19390857 0.56400001 77 175 74 255
-0.12064286 -0.19356477 0.56300002 77 175 74 255
-0.11935811 -0.19322097 0.56200004 77 175 74 255
-0.11807715 -0.19287716 0.56100005 77 175 74 255
-0.11700858 -0.19287716 0.56100005 77 175 74 255
-0.11594 -0.19287716 0.56100005 77 175 74 255
-0.11466667 -0.19253333 0.56 77 175 74 255
-0.1136 -0.19253333 0.56 77 175 74 255
-0.11253334 -0.19253333 0.56 77 175 74 255
-0.11146667 -0.19253333 0.56 77 175 74 255
-0.1104 -0.19253333 0.56 77 175 74 255
-0.10933334 -0.19253333 0.56 77 175 74 255
-0.10826667 -0.19253333 0.56 77 175 74 255
-0.1072 -0.19253333 0.56 77 175 74 255
-0.10613333 -0.19253333 0.56 77 175 74 255
-0.10544191 -0.19322097 0.56200004 77 175 74 255
-0.10492858 -0.19425237 0.565 77 175 74 255
-0.10385238 -0.19425237 0.565 77 175 74 255
-0.10277619 -0.19425237 0.565 77 175 74 255
-0.10206001 -0.19494002 0.56700003 77 175 74 255
-0.10098001 -0.19494002 0.56700003 77 175 74 255
-0.099547617 -0.19425237 0.565 77 175 74 255
-0.098471425 -0.19425237 0.565 77 175 74 255
-0.097395234 -0.19425237 0.565 77 175 74 255
-0.096148573 -0.19390857 0.56400001 77 175 74 255
-0.095074289 -0.19390857 0.56400001 77 175 74 255
-0.093833335 -0.19356477 0.56300002 77 175 74 255
-0.09276095 -0.19356477 0.56300002 77 175 74 255
-0.091851428 -0.19390857 0.56400001 77 175 74 255
-0.090777144 -0.19390857 0.56400001 77 175 74 255
-0.087953337 -0.19012667 0.55300003 77 175 74 255
-0.086742863 -0.18978287 0.55200005 77 175 74 255
-0.08569143 -0.18978287 0.55200005 77 175 74 255
-0.084486663 -0.18943904 0.551 77 175 74 255
-0.083437145 -0.18943904 0.551 77 175 74 255
-0.082387611 -0.18943904 0.551 77 175 74 255
-0.081338093 -0.18943904 0.551 77 175 74 255
-0.080434293 -0.18978287 0.55200005 77 175 74 255
-0.079670474 -0.19047047 0.55400002 77 175 74 255
-0.028282858 -0.17912477 0.52100003 77 175 74 255
-0.027290476 -0.17912477 0.52100003 77 175 74 255
-0.026298096 -0.17912477 0.52100003 77 175 74 255
-0.025305714 -0.17912477 0.52100003 77 175 74 255
-0.024313334 -0.17912477 0.52100003 77 175 74 255
-0.023320954 -0.17912477 0.52100003 77 175 74 255
-0.022328572 -0.17912477 0.52100003 77 175 74 255
-0.021336192 -0.17912477 0.52100003 77 175 74 255
-0.02034381 -0.17912477 0.52100003 77 175 74 255
-0.019351428 -0.17912477 0.52100003 77 175 74 255
-0.018394286 -0.17946857 0.52200001 77 175 74 255
-0.017433334 -0.17981237 0.523 77 175 74 255
-0.13364001 -0.17573905 0.514 77 175 74 255
-0.1316819 -0.17573905 0.514 77 175 74 255
-0.13070287 -0.17573905 0.514 77 175 74 255
-0.12972382 -0.17573905 0.514 77 175 74 255
-0.12849429 -0.17539714 0.51300001 77 175 74 255
-0.12726857 -0.17505525 0.51200002 77 175 74 255
-0.12629333 -0.17505525 0.51200002 77 175 74 255
-0.1253181 -0.17505525 0.51200002 77 175 74 255
-0.12434287 -0.17505525 0.51200002 77 175 74 255
-0.12336763 -0.17505525 0.51200002 77 175 74 255
-0.12263143 -0.17539714 0.51300001 77 175 74 255
-0.12189142 -0.17573905 0.514 77 175 74 255
-0.12091238 -0.17573905 0.514 77 175 74 255
-0.11993333 -0.17573905 0.514 77 175 74 255
-0.12974286 -0.19488573 0.57000005 77 175 74 255
-0.12843142 -0.19454381 0.56900001 77 175 74 255
-0.12734762 -0.19454381 0.56900001 77 175 74 255
-0.12604192 -0.1942019 0.56800002 77 175 74 255
-0.12452002 -0.1935181 0.56600004 77 175 74 255
-0.12344192 -0.1935181 0.56600004 77 175 74 255
-0.12214762 -0.1931762 0.565 77 175 74 255
-0.12085714 -0.19283429 0.56400001 77 175 74 255
-0.11935811 -0.19215049 0.56200004 77 175 74 255
-0.11828763 -0.19215049 0.56200004 77 175 74 255
-0.11700858 -0.19180858 0.56100005 77 175 74 255
-0.11594 -0.19180858 0.56100005 77 175 74 255
-0.11487144 -0.19180858 0.56100005 77 175 74 255
-0.11380287 -0.19180858 0.56100005 77 175 74 255
-0.1127343 -0.19180858 0.56100005 77 175 74 255
-0.11146667 -0.19146666 0.56 77 175 74 255
-0.1104 -0.19146666 0.56 77 175 74 255
-0.10952858 -0.19180858 0.56100005 77 175 74 255
-0.10846001 -0.19180858 0.56100005 77 175 74 255
-0.10739144 -0.19180858 0.56100005 77 175 74 255
-0.10632286 -0.19180858 0.56100005 77 175 74 255
-0.10581715 -0.19283429 0.56400001 77 175 74 255
-0.10492858 -0.1931762 0.565 77 175 74 255
-0.10385238 -0.1931762 0.565 77 175 74 255
-0.10277619 -0.1931762 0.565 77 175 74 255
-0.097395234 -0.1931762 0.565 77 175 74 255
-0.096148573 -0.19283429 0.56400001 77 175 74 255
-0.095074289 -0.19283429 0.56400001 77 175 74 255
-0.093833335 -0.19249238 0.56300002 77 175 74 255
-0.09276095 -0.19249238 0.56300002 77 175 74 255
-0.091851428 -0.19283429 0.56400001 77 175 74 255
-0.090938091 -0.1931762 0.565 77 175 74 255
-0.089861907 -0.1931762 0.565 77 175 74 255
-0.088785715 -0.1931762 0.565 77 175 74 255
-0.08569143 -0.18873145 0.55200005 77 175 74 255
-0.084640011 -0.18873145 0.55200005 77 175 74 255
-0.083740003 -0.18907334 0.55300003 77 175 74 255
-0.08268667 -0.18907334 0.55300003 77 175 74 255
-0.081633337 -0.18907334 0.55300003 77 175 74 255
-0.080725715 -0.18941523 0.55400002 77 175 74 255
-0.079670474 -0.18941523 0.55400002 77 175 74 255
-0.078615241 -0.18941523 0.55400002 77 175 74 255
-0.027290476 -0.1781324 0.52100003 77 175 74 255
-0.026298096 -0.1781324 0.52100003 77 175 74 255
-0.025305714 -0.1781324 0.52100003 77 175 74 255
-0.024313334 -0.1781324 0.52100003 77 175 74 255
-0.023320954 -0.1781324 0.52100003 77 175 74 255
-0.022328572 -0.1781324 0.52100003 77 175 74 255
-0.021336192 -0.1781324 0.52100003 77 175 74 255
-0.02034381 -0.1781324 0.52100003 77 175 74 255
-0.019351428 -0.1781324 0.52100003 77 175 74 255
-0.018394286 -0.17847429 0.52200001 77 175 74 255
-0.017433334 -0.1788162 0.523 77 175 74 255
-0.016437143 -0.1788162 0.523 77 175 74 255
-0.12972382 -0.17476 0.514 77 175 74 255
-0.12849429 -0.17442 0.51300001 77 175 74 255
-0.12726857 -0.17408001 0.51200002 77 175 74 255
-0.12629333 -0.17408001 0.51200002 77 175 74 255
-0.1253181 -0.17408001 0.51200002 77 175 74 255
-0.12434287 -0.17408001 0.51200002 77 175 74 255
-0.12336763 -0.17408001 0.51200002 77 175 74 255
-0.12263143 -0.17442 0.51300001 77 175 74 255
-0.12189142 -0.17476 0.514 77 175 74 255
-0.12091238 -0.17476 0.514 77 175 74 255
-0.11993333 -0.17476 0.514 77 175 74 255
-0.12974286 -0.19380002 0.57000005 77 175 74 255
-0.12843142 -0.19345999 0.56900001 77 175 74 255
-0.12734762 -0.19345999 0.56900001 77 175 74 255
-0.12604192 -0.19312 0.56800002 77 175 74 255
-0.12474 -0.19278 0.56700003 77 175 74 255
-0.12344192 -0.19244 0.56600004 77 175 74 255
-0.12214762 -0.1921 0.565 77 175 74 255
-0.12085714 -0.19176 0.56400001 77 175 74 255
-0.11957048 -0.19142 0.56300002 77 175 74 255
-0.11828763 -0.19108002 0.56200004 77 175 74 255
-0.11700858 -0.19074002 0.56100005 77 175 74 255
-0.11594 -0.19074002 0.56100005 77 175 74 255
-0.11487144 -0.19074002 0.56100005 77 175 74 255
-0.11380287 -0.19074002 0.56100005 77 175 74 255
-0.1127343 -0.19074002 0.56100005 77 175 74 255
-0.11166572 -0.19074002 0.56100005 77 175 74 255
-0.11059715 -0.19074002 0.56100005 77 175 74 255
-0.10952858 -0.19074002 0.56100005 77 175 74 255
-0.10865334 -0.19108002 0.56200004 77 175 74 255
-0.10758286 -0.19108002 0.56200004 77 175 74 255
-0.1067019 -0.19142 0.56300002 77 175 74 255
-0.10581715 -0.19176 0.56400001 77 175 74 255
-0.10492858 -0.1921 0.565 77 175 74 255
-0.10385238 -0.1921 0.565 77 175 74 255
-0.097395234 -0.1921 0.565 77 175 74 255
-0.096148573 -0.19176 0.56400001 77 175 74 255
-0.095074289 -0.19176 0.56400001 77 175 74 255
-0.093833335 -0.19142 0.56300002 77 175 74 255
-0.09276095 -0.19142 0.56300002 77 175 74 255
-0.092014283 -0.1921 0.565 77 175 74 255
-0.090938091 -0.1921 0.565 77 175 74 255
-0.089861907 -0.1921 0.565 77 175 74 255
-0.088785715 -0.1921 0.565 77 175 74 255
-0.087709524 -0.1921 0.565 77 175 74 255
-0.086633332 -0.1921 0.565 77 175 74 255
-0.080871426 -0.18870001 0.55500001 77 175 74 255
-0.079814285 -0.18870001 0.55500001 77 175 74 255
-0.028282858 -0.17714001 0.52100003 77 175 74 255
-0.027290476 -0.17714001 0.52100003 77 175 74 255
-0.026298096 -0.17714001 0.52100003 77 175 74 255
-0.025305714 -0.17714001 0.52100003 77 175 74 255
-0.024313334 -0.17714001 0.52100003 77 175 74 255
-0.023320954 -0.17714001 0.52100003 77 175 74 255
-0.022328572 -0.17714001 0.52100003 77 175 74 255
-0.021336192 -0.17714001 0.52100003 77 175 74 255
-0.02034381 -0.17714001 0.52100003 77 175 74 255
-0.019351428 -0.17714001 0.52100003 77 175 74 255
-0.018359048 -0.17714001 0.52100003 77 175 74 255
-0.017433334 -0.17782 0.523 77 175 74 255
-0.016437143 -0.17782 0.523 77 175 74 255
-0.12972382 -0.17378095 0.514 77 175 74 255
-0.12849429 -0.17344286 0.51300001 77 175 74 255
-0.12751715 -0.17344286 0.51300001 77 175 74 255
-0.12654001 -0.17344286 0.51300001 77 175 74 255
-0.12556286 -0.17344286 0.51300001 77 175 74 255
-0.12458572 -0.17344286 0.51300001 77 175 74 255
-0.12360857 -0.17344286 0.51300001 77 175 74 255
-0.12263143 -0.17344286 0.51300001 77 175 74 255
-0.12189142 -0.17378095 0.514 77 175 74 255
-0.12091238 -0.17378095 0.514 77 175 74 255
-0.11993333 -0.17378095 0.514 77 175 74 255
-0.11895429 -0.17378095 0.514 77 175 74 255
-0.13082857 -0.1927143 0.57000005 77 175 74 255
-0.12974286 -0.1927143 0.57000005 77 175 74 255
-0.12843142 -0.19237618 0.56900001 77 175 74 255
-0.12734762 -0.19237618 0.56900001 77 175 74 255
-0.12604192 -0.19203809 0.56800002 77 175 74 255
-0.12496001 -0.19203809 0.56800002 77 175 74 255
-0.12366 -0.1917 0.56700003 77 175 74 255
-0.12236382 -0.19136192 0.56600004 77 175 74 255
-0.12107143 -0.19102381 0.565 77 175 74 255
-0.11978286 -0.19068572 0.56400001 77 175 74 255
-0.11849809 -0.19034763 0.56300002 77 175 74 255
-0.11721715 -0.19000953 0.56200004 77 175 74 255
-0.11614668 -0.19000953 0.56200004 77 175 74 255
-0.1150762 -0.19000953 0.56200004 77 175 74 255
-0.11400572 -0.19000953 0.56200004 77 175 74 255
-0.11293525 -0.19000953 0.56200004 77 175 74 255
-0.11186477 -0.19000953 0.56200004 77 175 74 255
-0.11079429 -0.19000953 0.56200004 77 175 74 255
-0.10991906 -0.19034763 0.56300002 77 175 74 255
-0.10884666 -0.19034763 0.56300002 77 175 74 255
-0.10777429 -0.19034763 0.56300002 77 175 74 255
-0.10689143 -0.19068572 0.56400001 77 175 74 255
-0.10600476 -0.19102381 0.565 77 175 74 255
-0.10492858 -0.19102381 0.565 77 175 74 255
-0.092014283 -0.19102381 0.565 77 175 74 255
-0.090938091 -0.19102381 0.565 77 175 74 255
-0.089861907 -0.19102381 0.565 77 175 74 255
-0.088785715 -0.19102381 0.565 77 175 74 255
-0.087709524 -0.19102381 0.565 77 175 74 255
-0.086633332 -0.19102381 0.565 77 175 74 255
-0.028228574 -0.17580955 0.52000004 77 175 74 255
-0.027238097 -0.17580955 0.52000004 77 175 74 255
-0.026298096 -0.17614764 0.52100003 77 175 74 255
-0.025305714 -0.17614764 0.52100003 77 175 74 255
-0.024313334 -0.17614764 0.52100003 77 175 74 255
-0.023320954 -0.17614764 0.52100003 77 175 74 255
-0.022328572 -0.17614764 0.52100003 77 175 74 255
-0.021336192 -0.17614764 0.52100003 77 175 74 255
-0.02034381 -0.17614764 0.52100003 77 175 74 255
-0.019351428 -0.17614764 0.52100003 77 175 74 255
-0.018359048 -0.17614764 0.52100003 77 175 74 255
-0.017433334 -0.17682379 0.523 77 175 74 255
-0.016437143 -0.17682379 0.523 77 175 74 255
-0.12972382 -0.1728019 0.514 77 175 74 255
-0.12849429 -0.17246571 0.51300001 77 175 74 255
-0.12751715 -0.17246571 0.51300001 77 175 74 255
-0.12654001 -0.17246571 0.51300001 77 175 74 255
-0.12556286 -0.17246571 0.51300001 77 175 74 255
-0.12458572 -0.17246571 0.51300001 77 175 74 255
-0.12360857 -0.17246571 0.51300001 77 175 74 255
-0.12263143 -0.17246571 0.51300001 77 175 74 255
-0.12189142 -0.1728019 0.514 77 175 74 255
-0.12091238 -0.1728019 0.514 77 175 74 255
-0.11993333 -0.1728019 0.514 77 175 74 255
-0.11895429 -0.1728019 0.514 77 175 74 255
-0.13082857 -0.19162859 0.57000005 77 175 74 255
-0.12974286 -0.19162859 0.57000005 77 175 74 255
-0.12843142 -0.19129238 0.56900001 77 175 74 255
-0.12734762 -0.19129238 0.56900001 77 175 74 255
-0.12604192 -0.19095621 0.56800002 77 175 74 255
-0.12496001 -0.19095621 0.56800002 77 175 74 255
-0.1238781 -0.19095621 0.56800002 77 175 74 255
-0.12258 -0.19062002 0.56700003 77 175 74 255
-0.1215 -0.19062002 0.56700003 77 175 74 255
-0.11999524 -0.18994761 0.565 77 175 74 255
-0.11891904 -0.18994761 0.565 77 175 74 255
-0.11784285 -0.18994761 0.565 77 175 74 255
-0.11635334 -0.18927525 0.56300002 77 175 74 255
-0.11528096 -0.18927525 0.56300002 77 175 74 255
-0.11420858 -0.18927525 0.56300002 77 175 74 255
-0.11313619 -0.18927525 0.56300002 77 175 74 255
-0.11226285 -0.18961143 0.56400001 77 175 74 255
-0.11138572 -0.18994761 0.565 77 175 74 255
-0.11030952 -0.18994761 0.565 77 175 74 255
-0.10923333 -0.18994761 0.565 77 175 74 255
-0.10815714 -0.18994761 0.565 77 175 74 255
-0.10708095 -0.18994761 0.565 77 175 74 255
-0.10600476 -0.18994761 0.565 77 175 74 255
-0.093090475 -0.18994761 0.565 77 175 74 255
-0.092014283 -0.18994761 0.565 77 175 74 255
-0.090938091 -0.18994761 0.565 77 175 74 255
-0.089861907 -0.18994761 0.565 77 175 74 255
-0.088785715 -0.18994761 0.565 77 175 74 255
-0.087709524 -0.18994761 0.565 77 175 74 255
-0.02921905 -0.17481905 0.52000004 77 175 74 255
-0.028228574 -0.17481905 0.52000004 77 175 74 255
-0.027238097 -0.17481905 0.52000004 77 175 74 255
-0.026298096 -0.17515525 0.52100003 77 175 74 255
-0.025305714 -0.17515525 0.52100003 77 175 74 255
-0.024313334 -0.17515525 0.52100003 77 175 74 255
-0.023320954 -0.17515525 0.52100003 77 175 74 255
-0.022328572 -0.17515525 0.52100003 77 175 74 255
-0.021336192 -0.17515525 0.52100003 77 175 74 255
-0.02034381 -0.17515525 0.52100003 77 175 74 255
-0.019351428 -0.17515525 0.52100003 77 175 74 255
-0.018394286 -0.17549144 0.52200001 77 175 74 255
-0.017433334 -0.17582762 0.523 77 175 74 255
-0.016374286 -0.17515525 0.52100003 77 175 74 255
-0.015381905 -0.17515525 0.52100003 77 175 74 255
-0.13070287 -0.17182286 0.514 77 175 74 255
-0.12972382 -0.17182286 0.514 77 175 74 255
-0.12849429 -0.17148857 0.51300001 77 175 74 255
-0.12751715 -0.17148857 0.51300001 77 175 74 255
-0.12654001 -0.17148857 0.51300001 77 175 74 255
-0.12556286 -0.17148857 0.51300001 77 175 74 255
-0.12458572 -0.17148857 0.51300001 77 175 74 255
-0.12360857 -0.17148857 0.51300001 77 175 74 255
-0.12263143 -0.17148857 0.51300001 77 175 74 255
-0.12189142 -0.17182286 0.514 77 175 74 255
-0.12091238 -0.17182286 0.514 77 175 74 255
-0.11993333 -0.17182286 0.514 77 175 74 255
-0.11895429 -0.17182286 0.514 77 175 74 255
-0.13128762 -0.19121143 0.57200003 77 175 74 255
-0.13019811 -0.19121143 0.57200003 77 175 74 255
-0.12843142 -0.19020858 0.56900001 77 175 74 255
-0.12734762 -0.19020858 0.56900001 77 175 74 255
-0.1262638 -0.19020858 0.56900001 77 175 74 255
-0.12517999 -0.19020858 0.56900001 77 175 74 255
-0.1238781 -0.18987429 0.56800002 77 175 74 255
-0.12279619 -0.18987429 0.56800002 77 175 74 255
-0.1215 -0.18954001 0.56700003 77 175 74 255
-0.12020763 -0.18920572 0.56600004 77 175 74 255
-0.11891904 -0.18887143 0.565 77 175 74 255
-0.11784285 -0.18887143 0.565 77 175 74 255
-0.11676666 -0.18887143 0.565 77 175 74 255
-0.11569048 -0.18887143 0.565 77 175 74 255
-0.11461429 -0.18887143 0.565 77 175 74 255
-0.11353809 -0.18887143 0.565 77 175 74 255
-0.1124619 -0.18887143 0.565 77 175 74 255
-0.11138572 -0.18887143 0.565 77 175 74 255
