ply
format ascii 1.0
comment PCL generated
element vertex 973
property float x
property float y
property float z
property uchar red
property uchar green
property uchar blue
property uchar alpha
element camera 0
property float view_px
property float view_py
property float view_pz
property float x_axisx
property float x_axisy
property float x_axisz
property float y_axisx
property float y_axisy
property float y_axisz
property float z_axisx
property float z_axisy
property float z_axisz
property float focal
property float scalex
property float scaley
property float centerx
property float centery
property int viewportx
property int viewporty
property float k1
property float k2
end_header
-0.11275905 -0.25127524 0.60100001 152 78 163 255
-0.11161429 -0.25127524 0.60100001 152 78 163 255
-0.11065334 -0.25169334 0.60200006 152 78 163 255
-0.10950667 -0.25169334 0.60200006 152 78 163 255
-0.10854001 -0.25211143 0.60300004 152 78 163 255
-0.10739144 -0.25211143 0.60300004 152 78 163 255
-0.10624287 -0.25211143 0.60300004 152 78 163 255
-0.10509429 -0.25211143 0.60300004 152 78 163 255
-0.22268 -0.24388762 0.58600003 152 78 163 255
-0.22156382 -0.24388762 0.58600003 152 78 163 255
-0.22044763 -0.24388762 0.58600003 152 78 163 255
-0.21895716 -0.24347144 0.58500004 152 78 163 255
-0.21784288 -0.24347144 0.58500004 152 78 163 255
-0.21672858 -0.24347144 0.58500004 152 78 163 255
-0.2156143 -0.24347144 0.58500004 152 78 163 255
-0.21450002 -0.24347144 0.58500004 152 78 163 255
-0.21338572 -0.24347144 0.58500004 152 78 163 255
-0.2126343 -0.24388762 0.58600003 152 78 163 255
-0.21187904 -0.24430382 0.58700001 152 78 163 255
-0.21111999 -0.24472 0.588 152 78 163 255
-0.21035716 -0.24513619 0.58900005 152 78 163 255
-0.20923525 -0.24513619 0.58900005 152 78 163 255
-0.14420097 -0.25512478 0.61300004 152 78 163 255
-0.14280002 -0.25470859 0.61200005 152 78 163 255
-0.1416343 -0.25470859 0.61200005 152 78 163 255
-0.14092761 -0.25554097 0.61400002 152 78 163 255
-0.13998571 -0.25595716 0.61500001 152 78 163 255
-0.13881429 -0.25595716 0.61500001 152 78 163 255
-0.13764286 -0.25595716 0.61500001 152 78 163 255
-0.13713714 -0.25720572 0.61800003 152 78 163 255
-0.13596001 -0.25720572 0.61800003 152 78 163 255
-0.13500096 -0.25762191 0.61900002 152 78 163 255
-0.1338219 -0.25762191 0.61900002 152 78 163 255
-0.13264287 -0.25762191 0.61900002 152 78 163 255
-0.13146381 -0.25762191 0.61900002 152 78 163 255
-0.13028477 -0.25762191 0.61900002 152 78 163 255
-0.12931429 -0.2580381 0.62 152 78 163 255
-0.12854668 -0.25887051 0.62200004 152 78 163 255
-0.12736191 -0.25887051 0.62200004 152 78 163 255
-0.12617715 -0.25887051 0.62200004 152 78 163 255
-0.12499239 -0.25887051 0.62200004 152 78 163 255
-0.11962762 -0.25013047 0.60100001 152 78 163 255
-0.11848286 -0.25013047 0.60100001 152 78 163 255
-0.1173381 -0.25013047 0.60100001 152 78 163 255
-0.11619334 -0.25013047 0.60100001 152 78 163 255
-0.11504857 -0.25013047 0.60100001 152 78 163 255
-0.11390381 -0.25013047 0.60100001 152 78 163 255
-0.11275905 -0.25013047 0.60100001 152 78 163 255
-0.11161429 -0.25013047 0.60100001 152 78 163 255
-0.11065334 -0.25054669 0.60200006 152 78 163 255
-0.10950667 -0.25054669 0.60200006 152 78 163 255
-0.10836001 -0.25054669 0.60200006 152 78 163 255
-0.10721334 -0.25054669 0.60200006 152 78 163 255
-0.10624287 -0.25096288 0.60300004 152 78 163 255
-0.10509429 -0.25096288 0.60300004 152 78 163 255
-0.22268 -0.24277143 0.58600003 152 78 163 255
-0.22156382 -0.24277143 0.58600003 152 78 163 255
-0.22044763 -0.24277143 0.58600003 152 78 163 255
-0.21895716 -0.24235716 0.58500004 152 78 163 255
-0.21784288 -0.24235716 0.58500004 152 78 163 255
-0.21672858 -0.24235716 0.58500004 152 78 163 255
-0.2156143 -0.24235716 0.58500004 152 78 163 255
-0.21450002 -0.24235716 0.58500004 152 78 163 255
-0.21338572 -0.24235716 0.58500004 152 78 163 255
-0.2126343 -0.24277143 0.58600003 152 78 163 255
-0.21187904 -0.24318571 0.58700001 152 78 163 255
-0.21111999 -0.2436 0.588 152 78 163 255
-0.20999999 -0.2436 0.588 152 78 163 255
-0.20888001 -0.2436 0.588 152 78 163 255
-0.14209715 -0.25437143 0.61400002 152 78 163 255
-0.14092761 -0.25437143 0.61400002 152 78 163 255
-0.13998571 -0.25478572 0.61500001 152 78 163 255
-0.13881429 -0.25478572 0.61500001 152 78 163 255
-0.13786668 -0.25520003 0.61600006 152 78 163 255
-0.13713714 -0.25602859 0.61800003 152 78 163 255
-0.13596001 -0.25602859 0.61800003 152 78 163 255
-0.13478287 -0.25602859 0.61800003 152 78 163 255
-0.13360572 -0.25602859 0.61800003 152 78 163 255
-0.13242857 -0.25602859 0.61800003 152 78 163 255
-0.13167618 -0.25685716 0.62 152 78 163 255
-0.13049524 -0.25685716 0.62 152 78 163 255
-0.13035715 -0.25892857 0.625 152 78 163 255
-0.12916666 -0.25892857 0.625 152 78 163 255
-0.12797619 -0.25892857 0.625 152 78 163 255
-0.12678571 -0.25892857 0.625 152 78 163 255
-0.11962762 -0.24898571 0.60100001 152 78 163 255
-0.11848286 -0.24898571 0.60100001 152 78 163 255
-0.1173381 -0.24898571 0.60100001 152 78 163 255
-0.11619334 -0.24898571 0.60100001 152 78 163 255
-0.11504857 -0.24898571 0.60100001 152 78 163 255
-0.11390381 -0.24898571 0.60100001 152 78 163 255
-0.11275905 -0.24898571 0.60100001 152 78 163 255
-0.11161429 -0.24898571 0.60100001 152 78 163 255
-0.11046953 -0.24898571 0.60100001 152 78 163 255
-0.10932476 -0.24898571 0.60100001 152 78 163 255
-0.10818 -0.24898571 0.60100001 152 78 163 255
-0.10703523 -0.24898571 0.60100001 152 78 163 255
-0.10624287 -0.2498143 0.60300004 152 78 163 255
-0.10509429 -0.2498143 0.60300004 152 78 163 255
-0.22268 -0.24165525 0.58600003 152 78 163 255
-0.22118573 -0.24124287 0.58500004 152 78 163 255
-0.22007143 -0.24124287 0.58500004 152 78 163 255
-0.21895716 -0.24124287 0.58500004 152 78 163 255
-0.21784288 -0.24124287 0.58500004 152 78 163 255
-0.21672858 -0.24124287 0.58500004 152 78 163 255
-0.2156143 -0.24124287 0.58500004 152 78 163 255
-0.21450002 -0.24124287 0.58500004 152 78 163 255
-0.21338572 -0.24124287 0.58500004 152 78 163 255
-0.21227144 -0.24124287 0.58500004 152 78 163 255
-0.21187904 -0.24206762 0.58700001 152 78 163 255
-0.21076097 -0.24206762 0.58700001 152 78 163 255
-0.20999999 -0.24247999 0.588 152 78 163 255
-0.20888001 -0.24247999 0.588 152 78 163 255
-0.20775999 -0.24247999 0.588 152 78 163 255
-0.20699145 -0.2428924 0.58900005 152 78 163 255
-0.14138667 -0.25402668 0.61600006 152 78 163 255
-0.13998571 -0.25361431 0.61500001 152 78 163 255
-0.13881429 -0.25361431 0.61500001 152 78 163 255
-0.13786668 -0.25402668 0.61600006 152 78 163 255
-0.13713714 -0.25485146 0.61800003 152 78 163 255
-0.13596001 -0.25485146 0.61800003 152 78 163 255
-0.13478287 -0.25485146 0.61800003 152 78 163 255
-0.13360572 -0.25485146 0.61800003 152 78 163 255
-0.13242857 -0.25485146 0.61800003 152 78 163 255
-0.13217905 -0.25897524 0.62800002 152 78 163 255
-0.13098286 -0.25897524 0.62800002 152 78 163 255
-0.12978667 -0.25897524 0.62800002 152 78 163 255
-0.11848286 -0.24784096 0.60100001 152 78 163 255
-0.1173381 -0.24784096 0.60100001 152 78 163 255
-0.11619334 -0.24784096 0.60100001 152 78 163 255
-0.11504857 -0.24784096 0.60100001 152 78 163 255
-0.11390381 -0.24784096 0.60100001 152 78 163 255
-0.11275905 -0.24784096 0.60100001 152 78 163 255
-0.11161429 -0.24784096 0.60100001 152 78 163 255
-0.11046953 -0.24784096 0.60100001 152 78 163 255
-0.10932476 -0.24784096 0.60100001 152 78 163 255
-0.10818 -0.24784096 0.60100001 152 78 163 255
-0.10703523 -0.24784096 0.60100001 152 78 163 255
-0.10624287 -0.24866574 0.60300004 152 78 163 255
-0.10509429 -0.24866574 0.60300004 152 78 163 255
-0.22268 -0.24053906 0.58600003 152 78 163 255
-0.22118573 -0.24012858 0.58500004 152 78 163 255
-0.22007143 -0.24012858 0.58500004 152 78 163 255
-0.21895716 -0.24012858 0.58500004 152 78 163 255
-0.21784288 -0.24012858 0.58500004 152 78 163 255
-0.21672858 -0.24012858 0.58500004 152 78 163 255
-0.2156143 -0.24012858 0.58500004 152 78 163 255
-0.21450002 -0.24012858 0.58500004 152 78 163 255
-0.21338572 -0.24012858 0.58500004 152 78 163 255
-0.21227144 -0.24012858 0.58500004 152 78 163 255
-0.21151811 -0.24053906 0.58600003 152 78 163 255
-0.21040191 -0.24053906 0.58600003 152 78 163 255
-0.20964286 -0.24094953 0.58700001 152 78 163 255
-0.20852476 -0.24094953 0.58700001 152 78 163 255
-0.20775999 -0.24135999 0.588 152 78 163 255
-0.20664001 -0.24135999 0.588 152 78 163 255
-0.20552 -0.24135999 0.588 152 78 163 255
-0.20439999 -0.24135999 0.588 152 78 163 255
-0.13904002 -0.25285336 0.61600006 152 78 163 255
-0.13786668 -0.25285336 0.61600006 152 78 163 255
-0.11962762 -0.24669619 0.60100001 152 78 163 255
-0.11848286 -0.24669619 0.60100001 152 78 163 255
-0.1173381 -0.24669619 0.60100001 152 78 163 255
-0.11619334 -0.24669619 0.60100001 152 78 163 255
-0.11504857 -0.24669619 0.60100001 152 78 163 255
-0.11390381 -0.24669619 0.60100001 152 78 163 255
-0.11275905 -0.24669619 0.60100001 152 78 163 255
-0.11161429 -0.24669619 0.60100001 152 78 163 255
-0.11046953 -0.24669619 0.60100001 152 78 163 255
-0.10932476 -0.24669619 0.60100001 152 78 163 255
-0.10818 -0.24669619 0.60100001 152 78 163 255
-0.10703523 -0.24669619 0.60100001 152 78 163 255
-0.10606667 -0.2471067 0.60200006 152 78 163 255
-0.10509429 -0.24751714 0.60300004 152 78 163 255
-0.22268 -0.23942287 0.58600003 152 78 163 255
-0.22118573 -0.2390143 0.58500004 152 78 163 255
-0.22007143 -0.2390143 0.58500004 152 78 163 255
-0.21895716 -0.2390143 0.58500004 152 78 163 255
-0.21784288 -0.2390143 0.58500004 152 78 163 255
-0.21672858 -0.2390143 0.58500004 152 78 163 255
-0.2156143 -0.2390143 0.58500004 152 78 163 255
-0.21450002 -0.2390143 0.58500004 152 78 163 255
-0.21338572 -0.2390143 0.58500004 152 78 163 255
-0.21227144 -0.2390143 0.58500004 152 78 163 255
-0.21151811 -0.23942287 0.58600003 152 78 163 255
-0.21040191 -0.23942287 0.58600003 152 78 163 255
-0.20964286 -0.23983142 0.58700001 152 78 163 255
-0.20852476 -0.23983142 0.58700001 152 78 163 255
-0.20775999 -0.24023999 0.588 152 78 163 255
-0.20664001 -0.24023999 0.588 152 78 163 255
-0.20552 -0.24023999 0.588 152 78 163 255
-0.20439999 -0.24023999 0.588 152 78 163 255
-0.20328 -0.24023999 0.588 152 78 163 255
-0.20216 -0.24023999 0.588 152 78 163 255
-0.20138192 -0.24064858 0.58900005 152 78 163 255
-0.20026001 -0.24064858 0.58900005 152 78 163 255
-0.1991381 -0.24064858 0.58900005 152 78 163 255
-0.19801621 -0.24064858 0.58900005 152 78 163 255
-0.11962762 -0.24555144 0.60100001 152 78 163 255
-0.11848286 -0.24555144 0.60100001 152 78 163 255
-0.1173381 -0.24555144 0.60100001 152 78 163 255
-0.11619334 -0.24555144 0.60100001 152 78 163 255
-0.11504857 -0.24555144 0.60100001 152 78 163 255
-0.11390381 -0.24555144 0.60100001 152 78 163 255
-0.11275905 -0.24555144 0.60100001 152 78 163 255
-0.11161429 -0.24555144 0.60100001 152 78 163 255
-0.11046953 -0.24555144 0.60100001 152 78 163 255
-0.10932476 -0.24555144 0.60100001 152 78 163 255
-0.10818 -0.24555144 0.60100001 152 78 163 255
-0.10703523 -0.24555144 0.60100001 152 78 163 255
-0.10606667 -0.24596003 0.60200006 152 78 163 255
-0.22455999 -0.23912001 0.588 152 78 163 255
-0.22230001 -0.2379 0.58500004 152 78 163 255
-0.22118573 -0.2379 0.58500004 152 78 163 255
-0.22007143 -0.2379 0.58500004 152 78 163 255
-0.21895716 -0.2379 0.58500004 152 78 163 255
-0.21821524 -0.23830667 0.58600003 152 78 163 255
-0.21672858 -0.2379 0.58500004 152 78 163 255
-0.2156143 -0.2379 0.58500004 152 78 163 255
-0.21486668 -0.23830667 0.58600003 152 78 163 255
-0.21375048 -0.23830667 0.58600003 152 78 163 255
-0.2126343 -0.23830667 0.58600003 152 78 163 255
-0.21187904 -0.23871334 0.58700001 152 78 163 255
-0.21076097 -0.23871334 0.58700001 152 78 163 255
-0.20964286 -0.23871334 0.58700001 152 78 163 255
-0.20852476 -0.23871334 0.58700001 152 78 163 255
-0.20775999 -0.23912001 0.588 152 78 163 255
-0.20664001 -0.23912001 0.588 152 78 163 255
-0.20552 -0.23912001 0.588 152 78 163 255
-0.20439999 -0.23912001 0.588 152 78 163 255
-0.20328 -0.23912001 0.588 152 78 163 255
-0.20216 -0.23912001 0.588 152 78 163 255
-0.20104 -0.23912001 0.588 152 78 163 255
-0.20026001 -0.23952669 0.58900005 152 78 163 255
-0.1991381 -0.23952669 0.58900005 152 78 163 255
-0.19801621 -0.23952669 0.58900005 152 78 163 255
-0.1968943 -0.23952669 0.58900005 152 78 163 255
-0.19577239 -0.23952669 0.58900005 152 78 163 255
-0.11828572 -0.244 0.60000002 152 78 163 255
-0.11714286 -0.244 0.60000002 152 78 163 255
-0.116 -0.244 0.60000002 152 78 163 255
-0.11504857 -0.24440667 0.60100001 152 78 163 255
-0.11390381 -0.24440667 0.60100001 152 78 163 255
-0.11275905 -0.24440667 0.60100001 152 78 163 255
-0.11161429 -0.24440667 0.60100001 152 78 163 255
-0.11046953 -0.24440667 0.60100001 152 78 163 255
-0.10932476 -0.24440667 0.60100001 152 78 163 255
-0.10818 -0.24440667 0.60100001 152 78 163 255
-0.10703523 -0.24440667 0.60100001 152 78 163 255
-0.10606667 -0.24481335 0.60200006 152 78 163 255
-0.22455999 -0.23799999 0.588 152 78 163 255
-0.22230001 -0.23678572 0.58500004 152 78 163 255
-0.22118573 -0.23678572 0.58500004 152 78 163 255
-0.22007143 -0.23678572 0.58500004 152 78 163 255
-0.21895716 -0.23678572 0.58500004 152 78 163 255
-0.21821524 -0.23719049 0.58600003 152 78 163 255
-0.21672858 -0.23678572 0.58500004 152 78 163 255
-0.2156143 -0.23678572 0.58500004 152 78 163 255
-0.21486668 -0.23719049 0.58600003 152 78 163 255
-0.21375048 -0.23719049 0.58600003 152 78 163 255
-0.21299714 -0.23759525 0.58700001 152 78 163 255
-0.21187904 -0.23759525 0.58700001 152 78 163 255
-0.21076097 -0.23759525 0.58700001 152 78 163 255
-0.20964286 -0.23759525 0.58700001 152 78 163 255
-0.20852476 -0.23759525 0.58700001 152 78 163 255
-0.20775999 -0.23799999 0.588 152 78 163 255
-0.20664001 -0.23799999 0.588 152 78 163 255
-0.20552 -0.23799999 0.588 152 78 163 255
-0.20439999 -0.23799999 0.588 152 78 163 255
-0.20328 -0.23799999 0.588 152 78 163 255
-0.20216 -0.23799999 0.588 152 78 163 255
-0.20104 -0.23799999 0.588 152 78 163 255
-0.19992 -0.23799999 0.588 152 78 163 255
-0.1991381 -0.23840477 0.58900005 152 78 163 255
-0.19801621 -0.23840477 0.58900005 152 78 163 255
-0.1968943 -0.23840477 0.58900005 152 78 163 255
-0.19577239 -0.23840477 0.58900005 152 78 163 255
-0.19498096 -0.23880954 0.59000003 152 78 163 255
-0.11828572 -0.24285716 0.60000002 152 78 163 255
-0.11714286 -0.24285716 0.60000002 152 78 163 255
-0.116 -0.24285716 0.60000002 152 78 163 255
-0.11504857 -0.2432619 0.60100001 152 78 163 255
-0.11390381 -0.2432619 0.60100001 152 78 163 255
-0.11275905 -0.2432619 0.60100001 152 78 163 255
-0.11161429 -0.2432619 0.60100001 152 78 163 255
-0.11046953 -0.2432619 0.60100001 152 78 163 255
-0.10932476 -0.2432619 0.60100001 152 78 163 255
-0.10818 -0.2432619 0.60100001 152 78 163 255
-0.10703523 -0.2432619 0.60100001 152 78 163 255
-0.10589048 -0.2432619 0.60100001 152 78 163 255
-0.22268 -0.23607428 0.58600003 152 78 163 255
-0.22118573 -0.23567145 0.58500004 152 78 163 255
-0.22007143 -0.23567145 0.58500004 152 78 163 255
-0.21895716 -0.23567145 0.58500004 152 78 163 255
-0.21821524 -0.23607428 0.58600003 152 78 163 255
-0.21709906 -0.23607428 0.58600003 152 78 163 255
-0.21598287 -0.23607428 0.58600003 152 78 163 255
-0.21486668 -0.23607428 0.58600003 152 78 163 255
-0.21375048 -0.23607428 0.58600003 152 78 163 255
-0.21299714 -0.23647715 0.58700001 152 78 163 255
-0.21187904 -0.23647715 0.58700001 152 78 163 255
-0.21076097 -0.23647715 0.58700001 152 78 163 255
-0.20964286 -0.23647715 0.58700001 152 78 163 255
-0.20852476 -0.23647715 0.58700001 152 78 163 255
-0.20775999 -0.23687999 0.588 152 78 163 255
-0.20664001 -0.23687999 0.588 152 78 163 255
-0.20552 -0.23687999 0.588 152 78 163 255
-0.20439999 -0.23687999 0.588 152 78 163 255
-0.20328 -0.23687999 0.588 152 78 163 255
-0.20216 -0.23687999 0.588 152 78 163 255
-0.20104 -0.23687999 0.588 152 78 163 255
-0.19992 -0.23687999 0.588 152 78 163 255
-0.1991381 -0.23728287 0.58900005 152 78 163 255
-0.19801621 -0.23728287 0.58900005 152 78 163 255
-0.1968943 -0.23728287 0.58900005 152 78 163 255
-0.19577239 -0.23728287 0.58900005 152 78 163 255
-0.19465049 -0.23728287 0.58900005 152 78 163 255
-0.19385716 -0.23768573 0.59000003 152 78 163 255
-0.11828572 -0.24171428 0.60000002 152 78 163 255
-0.11714286 -0.24171428 0.60000002 152 78 163 255
-0.116 -0.24171428 0.60000002 152 78 163 255
-0.11504857 -0.24211715 0.60100001 152 78 163 255
-0.11390381 -0.24211715 0.60100001 152 78 163 255
-0.11275905 -0.24211715 0.60100001 152 78 163 255
-0.11161429 -0.24211715 0.60100001 152 78 163 255
-0.11046953 -0.24211715 0.60100001 152 78 163 255
-0.10932476 -0.24211715 0.60100001 152 78 163 255
-0.10818 -0.24211715 0.60100001 152 78 163 255
-0.10703523 -0.24211715 0.60100001 152 78 163 255
-0.10589048 -0.24211715 0.60100001 152 78 163 255
-0.22606383 -0.23616098 0.58900005 152 78 163 255
-0.22379619 -0.2349581 0.58600003 152 78 163 255
-0.22268 -0.2349581 0.58600003 152 78 163 255
-0.22118573 -0.23455715 0.58500004 152 78 163 255
-0.22007143 -0.23455715 0.58500004 152 78 163 255
-0.21933143 -0.2349581 0.58600003 152 78 163 255
-0.21821524 -0.2349581 0.58600003 152 78 163 255
-0.21709906 -0.2349581 0.58600003 152 78 163 255
-0.21598287 -0.2349581 0.58600003 152 78 163 255
-0.21523334 -0.23535904 0.58700001 152 78 163 255
-0.21411523 -0.23535904 0.58700001 152 78 163 255
-0.21299714 -0.23535904 0.58700001 152 78 163 255
-0.21187904 -0.23535904 0.58700001 152 78 163 255
-0.21076097 -0.23535904 0.58700001 152 78 163 255
-0.20964286 -0.23535904 0.58700001 152 78 163 255
-0.20852476 -0.23535904 0.58700001 152 78 163 255
-0.20775999 -0.23576 0.588 152 78 163 255
-0.20664001 -0.23576 0.588 152 78 163 255
-0.20552 -0.23576 0.588 152 78 163 255
-0.20439999 -0.23576 0.588 152 78 163 255
-0.20328 -0.23576 0.588 152 78 163 255
-0.20216 -0.23576 0.588 152 78 163 255
-0.20104 -0.23576 0.588 152 78 163 255
-0.20026001 -0.23616098 0.58900005 152 78 163 255
-0.1991381 -0.23616098 0.58900005 152 78 163 255
-0.19801621 -0.23616098 0.58900005 152 78 163 255
-0.1968943 -0.23616098 0.58900005 152 78 163 255
-0.19577239 -0.23616098 0.58900005 152 78 163 255
-0.19465049 -0.23616098 0.58900005 152 78 163 255
-0.19385716 -0.23656191 0.59000003 152 78 163 255
-0.19273335 -0.23656191 0.59000003 152 78 163 255
-0.18354763 -0.23776479 0.59300005 152 78 163 255
-0.18241811 -0.23776479 0.59300005 152 78 163 255
-0.18128859 -0.23776479 0.59300005 152 78 163 255
-0.11828572 -0.24057142 0.60000002 152 78 163 255
-0.11714286 -0.24057142 0.60000002 152 78 163 255
-0.116 -0.24057142 0.60000002 152 78 163 255
-0.11504857 -0.24097238 0.60100001 152 78 163 255
-0.11390381 -0.24097238 0.60100001 152 78 163 255
-0.11275905 -0.24097238 0.60100001 152 78 163 255
-0.11161429 -0.24097238 0.60100001 152 78 163 255
-0.11046953 -0.24097238 0.60100001 152 78 163 255
-0.10932476 -0.24097238 0.60100001 152 78 163 255
-0.10818 -0.24097238 0.60100001 152 78 163 255
-0.10703523 -0.24097238 0.60100001 152 78 163 255
-0.10589048 -0.24097238 0.60100001 152 78 163 255
-0.22606383 -0.23503906 0.58900005 152 78 163 255
-0.22494192 -0.23503906 0.58900005 152 78 163 255
-0.22343999 -0.23463999 0.588 152 78 163 255
-0.22232001 -0.23463999 0.588 152 78 163 255
-0.22119999 -0.23463999 0.588 152 78 163 255
-0.21970572 -0.23424095 0.58700001 152 78 163 255
-0.21858762 -0.23424095 0.58700001 152 78 163 255
-0.21746953 -0.23424095 0.58700001 152 78 163 255
-0.21635143 -0.23424095 0.58700001 152 78 163 255
-0.21523334 -0.23424095 0.58700001 152 78 163 255
-0.21411523 -0.23424095 0.58700001 152 78 163 255
-0.21299714 -0.23424095 0.58700001 152 78 163 255
-0.21224 -0.23463999 0.588 152 78 163 255
-0.21111999 -0.23463999 0.588 152 78 163 255
-0.20999999 -0.23463999 0.588 152 78 163 255
-0.20888001 -0.23463999 0.588 152 78 163 255
-0.20775999 -0.23463999 0.588 152 78 163 255
-0.20664001 -0.23463999 0.588 152 78 163 255
-0.20552 -0.23463999 0.588 152 78 163 255
-0.20439999 -0.23463999 0.588 152 78 163 255
-0.20328 -0.23463999 0.588 152 78 163 255
-0.20216 -0.23463999 0.588 152 78 163 255
-0.20104 -0.23463999 0.588 152 78 163 255
-0.19992 -0.23463999 0.588 152 78 163 255
-0.1991381 -0.23503906 0.58900005 152 78 163 255
-0.19801621 -0.23503906 0.58900005 152 78 163 255
-0.1968943 -0.23503906 0.58900005 152 78 163 255
-0.19577239 -0.23503906 0.58900005 152 78 163 255
-0.19465049 -0.23503906 0.58900005 152 78 163 255
-0.19385716 -0.23543809 0.59000003 152 78 163 255
-0.19273335 -0.23543809 0.59000003 152 78 163 255
-0.18354763 -0.23663525 0.59300005 152 78 163 255
-0.18241811 -0.23663525 0.59300005 152 78 163 255
-0.18128859 -0.23663525 0.59300005 152 78 163 255
-0.18015906 -0.23663525 0.59300005 152 78 163 255
-0.17902954 -0.23663525 0.59300005 152 78 163 255
-0.17790002 -0.23663525 0.59300005 152 78 163 255
-0.17677049 -0.23663525 0.59300005 152 78 163 255
-0.11942858 -0.23942858 0.60000002 152 78 163 255
-0.11828572 -0.23942858 0.60000002 152 78 163 255
-0.11714286 -0.23942858 0.60000002 152 78 163 255
-0.116 -0.23942858 0.60000002 152 78 163 255
-0.11504857 -0.23982762 0.60100001 152 78 163 255
-0.11390381 -0.23982762 0.60100001 152 78 163 255
-0.11275905 -0.23982762 0.60100001 152 78 163 255
-0.11161429 -0.23982762 0.60100001 152 78 163 255
-0.11046953 -0.23982762 0.60100001 152 78 163 255
-0.10932476 -0.23982762 0.60100001 152 78 163 255
-0.10818 -0.23982762 0.60100001 152 78 163 255
-0.10685714 -0.23942858 0.60000002 152 78 163 255
-0.10571429 -0.23942858 0.60000002 152 78 163 255
-0.22830763 -0.23391716 0.58900005 152 78 163 255
-0.22718573 -0.23391716 0.58900005 152 78 163 255
-0.22606383 -0.23391716 0.58900005 152 78 163 255
-0.22494192 -0.23391716 0.58900005 152 78 163 255
-0.22343999 -0.23352 0.588 152 78 163 255
-0.22232001 -0.23352 0.588 152 78 163 255
-0.22119999 -0.23352 0.588 152 78 163 255
-0.22008 -0.23352 0.588 152 78 163 255
-0.21896 -0.23352 0.588 152 78 163 255
-0.21783999 -0.23352 0.588 152 78 163 255
-0.21672 -0.23352 0.588 152 78 163 255
-0.2156 -0.23352 0.588 152 78 163 255
-0.21448 -0.23352 0.588 152 78 163 255
-0.21336 -0.23352 0.588 152 78 163 255
-0.21224 -0.23352 0.588 152 78 163 255
-0.21111999 -0.23352 0.588 152 78 163 255
-0.20999999 -0.23352 0.588 152 78 163 255
-0.20888001 -0.23352 0.588 152 78 163 255
-0.20775999 -0.23352 0.588 152 78 163 255
-0.20664001 -0.23352 0.588 152 78 163 255
-0.20552 -0.23352 0.588 152 78 163 255
-0.20439999 -0.23352 0.588 152 78 163 255
-0.20328 -0.23352 0.588 152 78 163 255
-0.20216 -0.23352 0.588 152 78 163 255
-0.20104 -0.23352 0.588 152 78 163 255
-0.19992 -0.23352 0.588 152 78 163 255
-0.1991381 -0.23391716 0.58900005 152 78 163 255
-0.19801621 -0.23391716 0.58900005 152 78 163 255
-0.1968943 -0.23391716 0.58900005 152 78 163 255
-0.19577239 -0.23391716 0.58900005 152 78 163 255
-0.19465049 -0.23391716 0.58900005 152 78 163 255
-0.19385716 -0.23431429 0.59000003 152 78 163 255
-0.19273335 -0.23431429 0.59000003 152 78 163 255
-0.19193429 -0.23471144 0.59100002 152 78 163 255
-0.19080858 -0.23471144 0.59100002 152 78 163 255
-0.19000381 -0.23510857 0.59200001 152 78 163 255
-0.18693621 -0.23550573 0.59300005 152 78 163 255
-0.18580668 -0.23550573 0.59300005 152 78 163 255
-0.1843657 -0.23510857 0.59200001 152 78 163 255
-0.1832381 -0.23510857 0.59200001 152 78 163 255
-0.18211047 -0.23510857 0.59200001 152 78 163 255
-0.18128859 -0.23550573 0.59300005 152 78 163 255
-0.18015906 -0.23550573 0.59300005 152 78 163 255
-0.17902954 -0.23550573 0.59300005 152 78 163 255
-0.17790002 -0.23550573 0.59300005 152 78 163 255
-0.17677049 -0.23550573 0.59300005 152 78 163 255
-0.17593715 -0.23590286 0.59400004 152 78 163 255
-0.17510001 -0.23630001 0.59500003 152 78 163 255
-0.17396668 -0.23630001 0.59500003 152 78 163 255
-0.17283334 -0.23630001 0.59500003 152 78 163 255
-0.1717 -0.23630001 0.59500003 152 78 163 255
-0.17056666 -0.23630001 0.59500003 152 78 163 255
-0.1697181 -0.23669715 0.59600002 152 78 163 255
-0.16858286 -0.23669715 0.59600002 152 78 163 255
-0.16744763 -0.23669715 0.59600002 152 78 163 255
-0.16631238 -0.23669715 0.59600002 152 78 163 255
-0.1649 -0.23630001 0.59500003 152 78 163 255
-0.11942858 -0.23828572 0.60000002 152 78 163 255
-0.11828572 -0.23828572 0.60000002 152 78 163 255
-0.11714286 -0.23828572 0.60000002 152 78 163 255
-0.116 -0.23828572 0.60000002 152 78 163 255
-0.11504857 -0.23868287 0.60100001 152 78 163 255
-0.11390381 -0.23868287 0.60100001 152 78 163 255
-0.11275905 -0.23868287 0.60100001 152 78 163 255
-0.11161429 -0.23868287 0.60100001 152 78 163 255
-0.11046953 -0.23868287 0.60100001 152 78 163 255
-0.10932476 -0.23868287 0.60100001 152 78 163 255
-0.10818 -0.23868287 0.60100001 152 78 163 255
-0.10685714 -0.23828572 0.60000002 152 78 163 255
-0.10571429 -0.23828572 0.60000002 152 78 163 255
-0.22830763 -0.23279525 0.58900005 152 78 163 255
-0.22718573 -0.23279525 0.58900005 152 78 163 255
-0.22606383 -0.23279525 0.58900005 152 78 163 255
-0.22494192 -0.23279525 0.58900005 152 78 163 255
-0.22343999 -0.2324 0.588 152 78 163 255
-0.22232001 -0.2324 0.588 152 78 163 255
-0.22119999 -0.2324 0.588 152 78 163 255
-0.22008 -0.2324 0.588 152 78 163 255
-0.21896 -0.2324 0.588 152 78 163 255
-0.21783999 -0.2324 0.588 152 78 163 255
-0.21672 -0.2324 0.588 152 78 163 255
-0.2156 -0.2324 0.588 152 78 163 255
-0.21448 -0.2324 0.588 152 78 163 255
-0.21336 -0.2324 0.588 152 78 163 255
-0.21224 -0.2324 0.588 152 78 163 255
-0.21111999 -0.2324 0.588 152 78 163 255
-0.20999999 -0.2324 0.588 152 78 163 255
-0.20888001 -0.2324 0.588 152 78 163 255
-0.20811334 -0.23279525 0.58900005 152 78 163 255
-0.20699145 -0.23279525 0.58900005 152 78 163 255
-0.20552 -0.2324 0.588 152 78 163 255
-0.20439999 -0.2324 0.588 152 78 163 255
-0.20328 -0.2324 0.588 152 78 163 255
-0.20216 -0.2324 0.588 152 78 163 255
-0.20104 -0.2324 0.588 152 78 163 255
-0.19992 -0.2324 0.588 152 78 163 255
-0.1991381 -0.23279525 0.58900005 152 78 163 255
-0.19801621 -0.23279525 0.58900005 152 78 163 255
-0.1968943 -0.23279525 0.58900005 152 78 163 255
-0.19577239 -0.23279525 0.58900005 152 78 163 255
-0.19498096 -0.23319049 0.59000003 152 78 163 255
-0.19385716 -0.23319049 0.59000003 152 78 163 255
-0.19306001 -0.23358573 0.59100002 152 78 163 255
-0.19193429 -0.23358573 0.59100002 152 78 163 255
-0.19080858 -0.23358573 0.59100002 152 78 163 255
-0.18968286 -0.23358573 0.59100002 152 78 163 255
-0.1888762 -0.23398095 0.59200001 152 78 163 255
-0.18774857 -0.23398095 0.59200001 152 78 163 255
-0.18662095 -0.23398095 0.59200001 152 78 163 255
-0.18518001 -0.23358573 0.59100002 152 78 163 255
-0.18405429 -0.23358573 0.59100002 152 78 163 255
-0.1832381 -0.23398095 0.59200001 152 78 163 255
-0.18211047 -0.23398095 0.59200001 152 78 163 255
-0.18098286 -0.23398095 0.59200001 152 78 163 255
-0.17985524 -0.23398095 0.59200001 152 78 163 255
-0.17902954 -0.23437621 0.59300005 152 78 163 255
-0.17790002 -0.23437621 0.59300005 152 78 163 255
-0.17677049 -0.23437621 0.59300005 152 78 163 255
-0.17564097 -0.23437621 0.59300005 152 78 163 255
-0.17480572 -0.23477143 0.59400004 152 78 163 255
-0.1736743 -0.23477143 0.59400004 152 78 163 255
-0.17283334 -0.23516668 0.59500003 152 78 163 255
-0.1717 -0.23516668 0.59500003 152 78 163 255
-0.17056666 -0.23516668 0.59500003 152 78 163 255
-0.16943334 -0.23516668 0.59500003 152 78 163 255
-0.16858286 -0.23556191 0.59600002 152 78 163 255
-0.16716668 -0.23516668 0.59500003 152 78 163 255
-0.16603334 -0.23516668 0.59500003 152 78 163 255
-0.1649 -0.23516668 0.59500003 152 78 163 255
-0.16349144 -0.23477143 0.59400004 152 78 163 255
-0.16208668 -0.23437621 0.59300005 152 78 163 255
-0.16068572 -0.23398095 0.59200001 152 78 163 255
-0.15955809 -0.23398095 0.59200001 152 78 163 255
-0.15843047 -0.23398095 0.59200001 152 78 163 255
-0.15730286 -0.23398095 0.59200001 152 78 163 255
-0.15696667 -0.23516668 0.59500003 152 78 163 255
-0.15609525 -0.23556191 0.59600002 152 78 163 255
-0.15496001 -0.23556191 0.59600002 152 78 163 255
-0.15408286 -0.23595715 0.597 152 78 163 255
-0.11942858 -0.23714288 0.60000002 152 78 163 255
-0.11828572 -0.23714288 0.60000002 152 78 163 255
-0.11714286 -0.23714288 0.60000002 152 78 163 255
-0.116 -0.23714288 0.60000002 152 78 163 255
-0.11504857 -0.2375381 0.60100001 152 78 163 255
-0.11390381 -0.2375381 0.60100001 152 78 163 255
-0.11275905 -0.2375381 0.60100001 152 78 163 255
-0.11161429 -0.2375381 0.60100001 152 78 163 255
-0.11046953 -0.2375381 0.60100001 152 78 163 255
-0.10932476 -0.2375381 0.60100001 152 78 163 255
-0.10818 -0.2375381 0.60100001 152 78 163 255
-0.10685714 -0.23714288 0.60000002 152 78 163 255
-0.10571429 -0.23714288 0.60000002 152 78 163 255
-0.22830763 -0.23167334 0.58900005 152 78 163 255
-0.22718573 -0.23167334 0.58900005 152 78 163 255
-0.22606383 -0.23167334 0.58900005 152 78 163 255
-0.22494192 -0.23167334 0.58900005 152 78 163 255
-0.22382002 -0.23167334 0.58900005 152 78 163 255
-0.22269812 -0.23167334 0.58900005 152 78 163 255
-0.2215762 -0.23167334 0.58900005 152 78 163 255
-0.22045431 -0.23167334 0.58900005 152 78 163 255
-0.21933238 -0.23167334 0.58900005 152 78 163 255
-0.21821049 -0.23167334 0.58900005 152 78 163 255
-0.2170886 -0.23167334 0.58900005 152 78 163 255
-0.21596667 -0.23167334 0.58900005 152 78 163 255
-0.21484478 -0.23167334 0.58900005 152 78 163 255
-0.21372287 -0.23167334 0.58900005 152 78 163 255
-0.21260096 -0.23167334 0.58900005 152 78 163 255
-0.21147907 -0.23167334 0.58900005 152 78 163 255
-0.21035716 -0.23167334 0.58900005 152 78 163 255
-0.20923525 -0.23167334 0.58900005 152 78 163 255
-0.20811334 -0.23167334 0.58900005 152 78 163 255
-0.20699145 -0.23167334 0.58900005 152 78 163 255
-0.20586953 -0.23167334 0.58900005 152 78 163 255
-0.20474763 -0.23167334 0.58900005 152 78 163 255
-0.20328 -0.23128 0.588 152 78 163 255
-0.20216 -0.23128 0.588 152 78 163 255
-0.20104 -0.23128 0.588 152 78 163 255
-0.19992 -0.23128 0.588 152 78 163 255
-0.1991381 -0.23167334 0.58900005 152 78 163 255
-0.19801621 -0.23167334 0.58900005 152 78 163 255
-0.1968943 -0.23167334 0.58900005 152 78 163 255
-0.19577239 -0.23167334 0.58900005 152 78 163 255
-0.19498096 -0.23206668 0.59000003 152 78 163 255
-0.19418572 -0.23246001 0.59100002 152 78 163 255
-0.19306001 -0.23246001 0.59100002 152 78 163 255
-0.19193429 -0.23246001 0.59100002 152 78 163 255
-0.19080858 -0.23246001 0.59100002 152 78 163 255
-0.18968286 -0.23246001 0.59100002 152 78 163 255
-0.1888762 -0.23285334 0.59200001 152 78 163 255
-0.18774857 -0.23285334 0.59200001 152 78 163 255
-0.18662095 -0.23285334 0.59200001 152 78 163 255
-0.18518001 -0.23246001 0.59100002 152 78 163 255
-0.18405429 -0.23246001 0.59100002 152 78 163 255
-0.1832381 -0.23285334 0.59200001 152 78 163 255
-0.18211047 -0.23285334 0.59200001 152 78 163 255
-0.18098286 -0.23285334 0.59200001 152 78 163 255
-0.17985524 -0.23285334 0.59200001 152 78 163 255
-0.17902954 -0.23324668 0.59300005 152 78 163 255
-0.17790002 -0.23324668 0.59300005 152 78 163 255
-0.17677049 -0.23324668 0.59300005 152 78 163 255
-0.17564097 -0.23324668 0.59300005 152 78 163 255
-0.17480572 -0.23364002 0.59400004 152 78 163 255
-0.1736743 -0.23364002 0.59400004 152 78 163 255
-0.17254287 -0.23364002 0.59400004 152 78 163 255
-0.17141144 -0.23364002 0.59400004 152 78 163 255
-0.17028001 -0.23364002 0.59400004 152 78 163 255
-0.16943334 -0.23403335 0.59500003 152 78 163 255
-0.1683 -0.23403335 0.59500003 152 78 163 255
-0.16716668 -0.23403335 0.59500003 152 78 163 255
-0.16603334 -0.23403335 0.59500003 152 78 163 255
-0.16462287 -0.23364002 0.59400004 152 78 163 255
-0.16349144 -0.23364002 0.59400004 152 78 163 255
-0.16208668 -0.23324668 0.59300005 152 78 163 255
-0.16068572 -0.23285334 0.59200001 152 78 163 255
-0.15955809 -0.23285334 0.59200001 152 78 163 255
-0.15843047 -0.23285334 0.59200001 152 78 163 255
-0.15783429 -0.23364002 0.59400004 152 78 163 255
-0.15696667 -0.23403335 0.59500003 152 78 163 255
-0.15609525 -0.23442668 0.59600002 152 78 163 255
-0.15496001 -0.23442668 0.59600002 152 78 163 255
-0.15408286 -0.23482001 0.597 152 78 163 255
-0.15294571 -0.23482001 0.597 152 78 163 255
-0.15180857 -0.23482001 0.597 152 78 163 255
-0.15041904 -0.23442668 0.59600002 152 78 163 255
-0.14928381 -0.23442668 0.59600002 152 78 163 255
-0.14790002 -0.23403335 0.59500003 152 78 163 255
-0.14676668 -0.23403335 0.59500003 152 78 163 255
-0.14563334 -0.23403335 0.59500003 152 78 163 255
-0.1445 -0.23403335 0.59500003 152 78 163 255
-0.14360763 -0.23442668 0.59600002 152 78 163 255
-0.11942858 -0.236 0.60000002 152 78 163 255
-0.11828572 -0.236 0.60000002 152 78 163 255
-0.11714286 -0.236 0.60000002 152 78 163 255
-0.116 -0.236 0.60000002 152 78 163 255
-0.11504857 -0.23639333 0.60100001 152 78 163 255
-0.11390381 -0.23639333 0.60100001 152 78 163 255
-0.11275905 -0.23639333 0.60100001 152 78 163 255
-0.11161429 -0.23639333 0.60100001 152 78 163 255
-0.11046953 -0.23639333 0.60100001 152 78 163 255
-0.10932476 -0.23639333 0.60100001 152 78 163 255
-0.10818 -0.23639333 0.60100001 152 78 163 255
-0.10685714 -0.236 0.60000002 152 78 163 255
-0.10571429 -0.236 0.60000002 152 78 163 255
-0.22830763 -0.23055145 0.58900005 152 78 163 255
-0.22718573 -0.23055145 0.58900005 152 78 163 255
-0.22606383 -0.23055145 0.58900005 152 78 163 255
-0.22494192 -0.23055145 0.58900005 152 78 163 255
-0.22382002 -0.23055145 0.58900005 152 78 163 255
-0.22269812 -0.23055145 0.58900005 152 78 163 255
-0.2215762 -0.23055145 0.58900005 152 78 163 255
-0.22045431 -0.23055145 0.58900005 152 78 163 255
-0.21933238 -0.23055145 0.58900005 152 78 163 255
-0.21821049 -0.23055145 0.58900005 152 78 163 255
-0.2170886 -0.23055145 0.58900005 152 78 163 255
-0.21596667 -0.23055145 0.58900005 152 78 163 255
-0.21484478 -0.23055145 0.58900005 152 78 163 255
-0.21372287 -0.23055145 0.58900005 152 78 163 255
-0.21260096 -0.23055145 0.58900005 152 78 163 255
-0.2118381 -0.23094288 0.59000003 152 78 163 255
-0.2107143 -0.23094288 0.59000003 152 78 163 255
-0.20959048 -0.23094288 0.59000003 152 78 163 255
-0.20846668 -0.23094288 0.59000003 152 78 163 255
-0.20734286 -0.23094288 0.59000003 152 78 163 255
-0.20586953 -0.23055145 0.58900005 152 78 163 255
-0.20474763 -0.23055145 0.58900005 152 78 163 255
-0.20362574 -0.23055145 0.58900005 152 78 163 255
-0.20250382 -0.23055145 0.58900005 152 78 163 255
-0.20138192 -0.23055145 0.58900005 152 78 163 255
-0.20026001 -0.23055145 0.58900005 152 78 163 255
-0.1991381 -0.23055145 0.58900005 152 78 163 255
-0.19801621 -0.23055145 0.58900005 152 78 163 255
-0.1968943 -0.23055145 0.58900005 152 78 163 255
-0.19577239 -0.23055145 0.58900005 152 78 163 255
-0.19498096 -0.23094288 0.59000003 152 78 163 255
-0.19418572 -0.23133428 0.59100002 152 78 163 255
-0.19306001 -0.23133428 0.59100002 152 78 163 255
-0.19193429 -0.23133428 0.59100002 152 78 163 255
-0.19080858 -0.23133428 0.59100002 152 78 163 255
-0.19000381 -0.23172571 0.59200001 152 78 163 255
-0.1888762 -0.23172571 0.59200001 152 78 163 255
-0.18774857 -0.23172571 0.59200001 152 78 163 255
-0.18662095 -0.23172571 0.59200001 152 78 163 255
-0.18549334 -0.23172571 0.59200001 152 78 163 255
-0.1843657 -0.23172571 0.59200001 152 78 163 255
-0.1832381 -0.23172571 0.59200001 152 78 163 255
-0.18211047 -0.23172571 0.59200001 152 78 163 255
-0.18098286 -0.23172571 0.59200001 152 78 163 255
-0.17985524 -0.23172571 0.59200001 152 78 163 255
-0.17902954 -0.23211716 0.59300005 152 78 163 255
-0.17790002 -0.23211716 0.59300005 152 78 163 255
-0.17677049 -0.23211716 0.59300005 152 78 163 255
-0.17564097 -0.23211716 0.59300005 152 78 163 255
-0.17451145 -0.23211716 0.59300005 152 78 163 255
-0.1736743 -0.23250858 0.59400004 152 78 163 255
-0.17254287 -0.23250858 0.59400004 152 78 163 255
-0.17141144 -0.23250858 0.59400004 152 78 163 255
-0.17028001 -0.23250858 0.59400004 152 78 163 255
-0.16914859 -0.23250858 0.59400004 152 78 163 255
-0.1683 -0.23290001 0.59500003 152 78 163 255
-0.16716668 -0.23290001 0.59500003 152 78 163 255
-0.16603334 -0.23290001 0.59500003 152 78 163 255
-0.16462287 -0.23250858 0.59400004 152 78 163 255
-0.16349144 -0.23250858 0.59400004 152 78 163 255
-0.16236001 -0.23250858 0.59400004 152 78 163 255
-0.16122858 -0.23250858 0.59400004 152 78 163 255
-0.16009715 -0.23250858 0.59400004 152 78 163 255
-0.15896572 -0.23250858 0.59400004 152 78 163 255
-0.15783429 -0.23250858 0.59400004 152 78 163 255
-0.15696667 -0.23290001 0.59500003 152 78 163 255
-0.15583335 -0.23290001 0.59500003 152 78 163 255
-0.15496001 -0.23329143 0.59600002 152 78 163 255
-0.15382476 -0.23329143 0.59600002 152 78 163 255
-0.15268953 -0.23329143 0.59600002 152 78 163 255
-0.15155429 -0.23329143 0.59600002 152 78 163 255
-0.15041904 -0.23329143 0.59600002 152 78 163 255
-0.14928381 -0.23329143 0.59600002 152 78 163 255
-0.14790002 -0.23290001 0.59500003 152 78 163 255
-0.14676668 -0.23290001 0.59500003 152 78 163 255
-0.14563334 -0.23290001 0.59500003 152 78 163 255
-0.14474286 -0.23329143 0.59600002 152 78 163 255
-0.14360763 -0.23329143 0.59600002 152 78 163 255
-0.12077238 -0.23524857 0.60100001 152 78 163 255
-0.11962762 -0.23524857 0.60100001 152 78 163 255
-0.11848286 -0.23524857 0.60100001 152 78 163 255
-0.11714286 -0.23485714 0.60000002 152 78 163 255
-0.116 -0.23485714 0.60000002 152 78 163 255
-0.11504857 -0.23524857 0.60100001 152 78 163 255
-0.11390381 -0.23524857 0.60100001 152 78 163 255
-0.11275905 -0.23524857 0.60100001 152 78 163 255
-0.11161429 -0.23524857 0.60100001 152 78 163 255
-0.11046953 -0.23524857 0.60100001 152 78 163 255
-0.10932476 -0.23524857 0.60100001 152 78 163 255
-0.108 -0.23485714 0.60000002 152 78 163 255
-0.10685714 -0.23485714 0.60000002 152 78 163 255
-0.22718573 -0.22942954 0.58900005 152 78 163 255
-0.22606383 -0.22942954 0.58900005 152 78 163 255
-0.22494192 -0.22942954 0.58900005 152 78 163 255
-0.22382002 -0.22942954 0.58900005 152 78 163 255
-0.22269812 -0.22942954 0.58900005 152 78 163 255
-0.2215762 -0.22942954 0.58900005 152 78 163 255
-0.22045431 -0.22942954 0.58900005 152 78 163 255
-0.21933238 -0.22942954 0.58900005 152 78 163 255
-0.21821049 -0.22942954 0.58900005 152 78 163 255
-0.2170886 -0.22942954 0.58900005 152 78 163 255
-0.21596667 -0.22942954 0.58900005 152 78 163 255
-0.21484478 -0.22942954 0.58900005 152 78 163 255
-0.21372287 -0.22942954 0.58900005 152 78 163 255
-0.21296191 -0.22981906 0.59000003 152 78 163 255
-0.2118381 -0.22981906 0.59000003 152 78 163 255
-0.21178573 -0.23098764 0.59300005 152 78 163 255
-0.21065621 -0.23098764 0.59300005 152 78 163 255
-0.20952669 -0.23098764 0.59300005 152 78 163 255
-0.20804571 -0.23059809 0.59200001 152 78 163 255
-0.20656857 -0.23020858 0.59100002 152 78 163 255
-0.20509525 -0.22981906 0.59000003 152 78 163 255
-0.20362574 -0.22942954 0.58900005 152 78 163 255
-0.20250382 -0.22942954 0.58900005 152 78 163 255
-0.20138192 -0.22942954 0.58900005 152 78 163 255
-0.20026001 -0.22942954 0.58900005 152 78 163 255
-0.1991381 -0.22942954 0.58900005 152 78 163 255
-0.19801621 -0.22942954 0.58900005 152 78 163 255
-0.1968943 -0.22942954 0.58900005 152 78 163 255
-0.19577239 -0.22942954 0.58900005 152 78 163 255
-0.19531144 -0.23020858 0.59100002 152 78 163 255
-0.19451429 -0.23059809 0.59200001 152 78 163 255
-0.19338666 -0.23059809 0.59200001 152 78 163 255
-0.19225906 -0.23059809 0.59200001 152 78 163 255
-0.19113143 -0.23059809 0.59200001 152 78 163 255
-0.19000381 -0.23059809 0.59200001 152 78 163 255
-0.1888762 -0.23059809 0.59200001 152 78 163 255
-0.18774857 -0.23059809 0.59200001 152 78 163 255
-0.18662095 -0.23059809 0.59200001 152 78 163 255
-0.18580668 -0.23098764 0.59300005 152 78 163 255
-0.1843657 -0.23059809 0.59200001 152 78 163 255
-0.1832381 -0.23059809 0.59200001 152 78 163 255
-0.18211047 -0.23059809 0.59200001 152 78 163 255
-0.18098286 -0.23059809 0.59200001 152 78 163 255
-0.17985524 -0.23059809 0.59200001 152 78 163 255
-0.17902954 -0.23098764 0.59300005 152 78 163 255
-0.17790002 -0.23098764 0.59300005 152 78 163 255
-0.17677049 -0.23098764 0.59300005 152 78 163 255
-0.17564097 -0.23098764 0.59300005 152 78 163 255
-0.17451145 -0.23098764 0.59300005 152 78 163 255
-0.1736743 -0.23137715 0.59400004 152 78 163 255
-0.17254287 -0.23137715 0.59400004 152 78 163 255
-0.17141144 -0.23137715 0.59400004 152 78 163 255
-0.17028001 -0.23137715 0.59400004 152 78 163 255
-0.16914859 -0.23137715 0.59400004 152 78 163 255
-0.1683 -0.23176667 0.59500003 152 78 163 255
-0.16688572 -0.23137715 0.59400004 152 78 163 255
-0.16575429 -0.23137715 0.59400004 152 78 163 255
-0.1649 -0.23176667 0.59500003 152 78 163 255
-0.16376667 -0.23176667 0.59500003 152 78 163 255
-0.16263334 -0.23176667 0.59500003 152 78 163 255
-0.16150001 -0.23176667 0.59500003 152 78 163 255
-0.16009715 -0.23137715 0.59400004 152 78 163 255
-0.15896572 -0.23137715 0.59400004 152 78 163 255
-0.15783429 -0.23137715 0.59400004 152 78 163 255
-0.15696667 -0.23176667 0.59500003 152 78 163 255
-0.15583335 -0.23176667 0.59500003 152 78 163 255
-0.15470001 -0.23176667 0.59500003 152 78 163 255
-0.15382476 -0.2321562 0.59600002 152 78 163 255
-0.15268953 -0.2321562 0.59600002 152 78 163 255
-0.15155429 -0.2321562 0.59600002 152 78 163 255
-0.15041904 -0.2321562 0.59600002 152 78 163 255
-0.14928381 -0.2321562 0.59600002 152 78 163 255
-0.14814857 -0.2321562 0.59600002 152 78 163 255
-0.14701334 -0.2321562 0.59600002 152 78 163 255
-0.14587809 -0.2321562 0.59600002 152 78 163 255
-0.14474286 -0.2321562 0.59600002 152 78 163 255
-0.14360763 -0.2321562 0.59600002 152 78 163 255
-0.12191714 -0.23410381 0.60100001 152 78 163 255
-0.12077238 -0.23410381 0.60100001 152 78 163 255
-0.11962762 -0.23410381 0.60100001 152 78 163 255
-0.11848286 -0.23410381 0.60100001 152 78 163 255
-0.11714286 -0.2337143 0.60000002 152 78 163 255
-0.116 -0.2337143 0.60000002 152 78 163 255
-0.11504857 -0.23410381 0.60100001 152 78 163 255
-0.11390381 -0.23410381 0.60100001 152 78 163 255
-0.11275905 -0.23410381 0.60100001 152 78 163 255
-0.11161429 -0.23410381 0.60100001 152 78 163 255
-0.11046953 -0.23410381 0.60100001 152 78 163 255
-0.10932476 -0.23410381 0.60100001 152 78 163 255
-0.108 -0.2337143 0.60000002 152 78 163 255
-0.10685714 -0.2337143 0.60000002 152 78 163 255
-0.22718573 -0.22830763 0.58900005 152 78 163 255
-0.22568001 -0.22792 0.588 152 78 163 255
-0.22455999 -0.22792 0.588 152 78 163 255
-0.22382002 -0.22830763 0.58900005 152 78 163 255
-0.22269812 -0.22830763 0.58900005 152 78 163 255
-0.2215762 -0.22830763 0.58900005 152 78 163 255
-0.22045431 -0.22830763 0.58900005 152 78 163 255
-0.21933238 -0.22830763 0.58900005 152 78 163 255
-0.21821049 -0.22830763 0.58900005 152 78 163 255
-0.2170886 -0.22830763 0.58900005 152 78 163 255
-0.21596667 -0.22830763 0.58900005 152 78 163 255
-0.21484478 -0.22830763 0.58900005 152 78 163 255
-0.21408571 -0.22869526 0.59000003 152 78 163 255
-0.21332286 -0.22908285 0.59100002 152 78 163 255
-0.2125562 -0.22947048 0.59200001 152 78 163 255
-0.21178573 -0.22985812 0.59300005 152 78 163 255
-0.21101144 -0.23024572 0.59400004 152 78 163 255
-0.20988001 -0.23024572 0.59400004 152 78 163 255
-0.20839715 -0.22985812 0.59300005 152 78 163 255
-0.20691811 -0.22947048 0.59200001 152 78 163 255
-0.20544286 -0.22908285 0.59100002 152 78 163 255
-0.20397145 -0.22869526 0.59000003 152 78 163 255
-0.20250382 -0.22830763 0.58900005 152 78 163 255
-0.20138192 -0.22830763 0.58900005 152 78 163 255
-0.20026001 -0.22830763 0.58900005 152 78 163 255
-0.1991381 -0.22830763 0.58900005 152 78 163 255
-0.19801621 -0.22830763 0.58900005 152 78 163 255
-0.1968943 -0.22830763 0.58900005 152 78 163 255
-0.19610478 -0.22869526 0.59000003 152 78 163 255
-0.19531144 -0.22908285 0.59100002 152 78 163 255
-0.19451429 -0.22947048 0.59200001 152 78 163 255
-0.19338666 -0.22947048 0.59200001 152 78 163 255
-0.19225906 -0.22947048 0.59200001 152 78 163 255
-0.19113143 -0.22947048 0.59200001 152 78 163 255
-0.19032478 -0.22985812 0.59300005 152 78 163 255
-0.18919525 -0.22985812 0.59300005 152 78 163 255
-0.18806574 -0.22985812 0.59300005 152 78 163 255
-0.18693621 -0.22985812 0.59300005 152 78 163 255
-0.18580668 -0.22985812 0.59300005 152 78 163 255
-0.18467715 -0.22985812 0.59300005 152 78 163 255
-0.18354763 -0.22985812 0.59300005 152 78 163 255
-0.18211047 -0.22947048 0.59200001 152 78 163 255
-0.18098286 -0.22947048 0.59200001 152 78 163 255
-0.17985524 -0.22947048 0.59200001 152 78 163 255
-0.17902954 -0.22985812 0.59300005 152 78 163 255
-0.17790002 -0.22985812 0.59300005 152 78 163 255
-0.17677049 -0.22985812 0.59300005 152 78 163 255
-0.17564097 -0.22985812 0.59300005 152 78 163 255
-0.17451145 -0.22985812 0.59300005 152 78 163 255
-0.1736743 -0.23024572 0.59400004 152 78 163 255
-0.17254287 -0.23024572 0.59400004 152 78 163 255
-0.17141144 -0.23024572 0.59400004 152 78 163 255
-0.17028001 -0.23024572 0.59400004 152 78 163 255
-0.16914859 -0.23024572 0.59400004 152 78 163 255
-0.1683 -0.23063333 0.59500003 152 78 163 255
-0.16688572 -0.23024572 0.59400004 152 78 163 255
-0.16575429 -0.23024572 0.59400004 152 78 163 255
-0.16462287 -0.23024572 0.59400004 152 78 163 255
-0.16376667 -0.23063333 0.59500003 152 78 163 255
-0.16263334 -0.23063333 0.59500003 152 78 163 255
-0.16150001 -0.23063333 0.59500003 152 78 163 255
-0.16036667 -0.23063333 0.59500003 152 78 163 255
-0.15896572 -0.23024572 0.59400004 152 78 163 255
-0.15783429 -0.23024572 0.59400004 152 78 163 255
-0.15696667 -0.23063333 0.59500003 152 78 163 255
-0.15583335 -0.23063333 0.59500003 152 78 163 255
-0.15470001 -0.23063333 0.59500003 152 78 163 255
-0.15382476 -0.23102096 0.59600002 152 78 163 255
-0.15268953 -0.23102096 0.59600002 152 78 163 255
-0.15155429 -0.23102096 0.59600002 152 78 163 255
-0.15041904 -0.23102096 0.59600002 152 78 163 255
-0.14928381 -0.23102096 0.59600002 152 78 163 255
-0.14814857 -0.23102096 0.59600002 152 78 163 255
-0.14701334 -0.23102096 0.59600002 152 78 163 255
-0.14587809 -0.23102096 0.59600002 152 78 163 255
-0.14474286 -0.23102096 0.59600002 152 78 163 255
-0.14360763 -0.23102096 0.59600002 152 78 163 255
-0.14247239 -0.23102096 0.59600002 152 78 163 255
-0.14157428 -0.23140857 0.597 152 78 163 255
-0.14043714 -0.23140857 0.597 152 78 163 255
-0.13953334 -0.23179621 0.59800005 152 78 163 255
-0.12514286 -0.23257144 0.60000002 152 78 163 255
-0.12400001 -0.23257144 0.60000002 152 78 163 255
-0.12285714 -0.23257144 0.60000002 152 78 163 255
-0.12171429 -0.23257144 0.60000002 152 78 163 255
-0.12057143 -0.23257144 0.60000002 152 78 163 255
-0.11942858 -0.23257144 0.60000002 152 78 163 255
-0.11848286 -0.23295906 0.60100001 152 78 163 255
-0.1173381 -0.23295906 0.60100001 152 78 163 255
-0.11619334 -0.23295906 0.60100001 152 78 163 255
-0.11504857 -0.23295906 0.60100001 152 78 163 255
-0.11390381 -0.23295906 0.60100001 152 78 163 255
-0.11275905 -0.23295906 0.60100001 152 78 163 255
-0.11161429 -0.23295906 0.60100001 152 78 163 255
-0.11046953 -0.23295906 0.60100001 152 78 163 255
-0.10932476 -0.23295906 0.60100001 152 78 163 255
-0.10818 -0.23295906 0.60100001 152 78 163 255
-0.22679999 -0.22679999 0.588 152 78 163 255
-0.22568001 -0.22679999 0.588 152 78 163 255
-0.22455999 -0.22679999 0.588 152 78 163 255
-0.22382002 -0.22718573 0.58900005 152 78 163 255
-0.22269812 -0.22718573 0.58900005 152 78 163 255
-0.2215762 -0.22718573 0.58900005 152 78 163 255
-0.22045431 -0.22718573 0.58900005 152 78 163 255
-0.21933238 -0.22718573 0.58900005 152 78 163 255
-0.21821049 -0.22718573 0.58900005 152 78 163 255
-0.2170886 -0.22718573 0.58900005 152 78 163 255
-0.21596667 -0.22718573 0.58900005 152 78 163 255
-0.21484478 -0.22718573 0.58900005 152 78 163 255
-0.21444857 -0.22795714 0.59100002 152 78 163 255
-0.2136838 -0.22834286 0.59200001 152 78 163 255
-0.21363334 -0.22950001 0.59500003 152 78 163 255
-0.21214287 -0.22911431 0.59400004 152 78 163 255
-0.21101144 -0.22911431 0.59400004 152 78 163 255
-0.20988001 -0.22911431 0.59400004 152 78 163 255
-0.20839715 -0.22872859 0.59300005 152 78 163 255
-0.20691811 -0.22834286 0.59200001 152 78 163 255
-0.20544286 -0.22795714 0.59100002 152 78 163 255
-0.20397145 -0.22757144 0.59000003 152 78 163 255
-0.20250382 -0.22718573 0.58900005 152 78 163 255
-0.20138192 -0.22718573 0.58900005 152 78 163 255
