ply
format ascii 1.0
comment PCL generated
element vertex 979
property float x
property float y
property float z
property uchar red
property uchar green
property uchar blue
property uchar alpha
element camera 0
property float view_px
property float view_py
property float view_pz
property float x_axisx
property float x_axisy
property float x_axisz
property float y_axisx
property float y_axisy
property float y_axisz
property float z_axisx
property float z_axisy
property float z_axisz
property float focal
property float scalex
property float scaley
property float centerx
property float centery
property int viewportx
property int viewporty
property float k1
property float k2
end_header
-0.22724096 0.039703812 0.88700002 228 26 28 255
-0.22555144 0.039703812 0.88700002 228 26 28 255
-0.22436668 0.039793335 0.88900006 228 26 28 255
-0.2274324 0.040643811 0.90800005 228 26 28 255
-0.24779999 0.041160002 0.88200003 228 26 28 255
-0.24611999 0.041160002 0.88200003 228 26 28 255
-0.24444002 0.041160002 0.88200003 228 26 28 255
-0.24276 0.041160002 0.88200003 228 26 28 255
-0.24108 0.041160002 0.88200003 228 26 28 255
-0.23940001 0.041160002 0.88200003 228 26 28 255
-0.23718096 0.041066669 0.88000005 228 26 28 255
-0.23550478 0.041066669 0.88000005 228 26 28 255
-0.23435999 0.041160002 0.88200003 228 26 28 255
-0.23268001 0.041160002 0.88200003 228 26 28 255
-0.23100001 0.041160002 0.88200003 228 26 28 255
-0.22932 0.041160002 0.88200003 228 26 28 255
-0.22764 0.041160002 0.88200003 228 26 28 255
-0.22672859 0.041300002 0.88500005 228 26 28 255
-0.22555144 0.041393336 0.88700002 228 26 28 255
-0.2238619 0.041393336 0.88700002 228 26 28 255
-0.2274324 0.042373337 0.90800005 228 26 28 255
-0.24779999 0.04284 0.88200003 228 26 28 255
-0.24611999 0.04284 0.88200003 228 26 28 255
-0.24388573 0.042742856 0.88000005 228 26 28 255
-0.24220954 0.042742856 0.88000005 228 26 28 255
-0.24053334 0.042742856 0.88000005 228 26 28 255
-0.23885716 0.042742856 0.88000005 228 26 28 255
-0.23718096 0.042742856 0.88000005 228 26 28 255
-0.23550478 0.042742856 0.88000005 228 26 28 255
-0.23435999 0.04284 0.88200003 228 26 28 255
-0.23215239 0.042742856 0.88000005 228 26 28 255
-0.2304762 0.042742856 0.88000005 228 26 28 255
-0.22932 0.04284 0.88200003 228 26 28 255
-0.22764 0.04284 0.88200003 228 26 28 255
-0.22672859 0.042985715 0.88500005 228 26 28 255
-0.22504286 0.042985715 0.88500005 228 26 28 255
-0.22335716 0.042985715 0.88500005 228 26 28 255
-0.22217238 0.043082856 0.88700002 228 26 28 255
-0.2472381 0.04441905 0.88000005 228 26 28 255
-0.24556193 0.04441905 0.88000005 228 26 28 255
-0.24388573 0.04441905 0.88000005 228 26 28 255
-0.24220954 0.04441905 0.88000005 228 26 28 255
-0.24053334 0.04441905 0.88000005 228 26 28 255
-0.23885716 0.04441905 0.88000005 228 26 28 255
-0.23718096 0.04441905 0.88000005 228 26 28 255
-0.23550478 0.04441905 0.88000005 228 26 28 255
-0.23382859 0.04441905 0.88000005 228 26 28 255
-0.23215239 0.04441905 0.88000005 228 26 28 255
-0.2304762 0.04441905 0.88000005 228 26 28 255
-0.22932 0.044520002 0.88200003 228 26 28 255
-0.2284143 0.044671431 0.88500005 228 26 28 255
-0.22672859 0.044671431 0.88500005 228 26 28 255
-0.22504286 0.044671431 0.88500005 228 26 28 255
-0.22335716 0.044671431 0.88500005 228 26 28 255
-0.22217238 0.044772383 0.88700002 228 26 28 255
-0.22048286 0.044772383 0.88700002 228 26 28 255
-0.24948001 0.0462 0.88200003 228 26 28 255
-0.2472381 0.046095241 0.88000005 228 26 28 255
-0.24556193 0.046095241 0.88000005 228 26 28 255
-0.24388573 0.046095241 0.88000005 228 26 28 255
-0.24165905 0.045990478 0.87800002 228 26 28 255
-0.23998667 0.045990478 0.87800002 228 26 28 255
-0.23885716 0.046095241 0.88000005 228 26 28 255
-0.23718096 0.046095241 0.88000005 228 26 28 255
-0.23550478 0.046095241 0.88000005 228 26 28 255
-0.23382859 0.046095241 0.88000005 228 26 28 255
-0.23215239 0.046095241 0.88000005 228 26 28 255
-0.2304762 0.046095241 0.88000005 228 26 28 255
-0.22932 0.0462 0.88200003 228 26 28 255
-0.22764 0.0462 0.88200003 228 26 28 255
-0.22672859 0.046357144 0.88500005 228 26 28 255
-0.22504286 0.046357144 0.88500005 228 26 28 255
-0.22335716 0.046357144 0.88500005 228 26 28 255
-0.22167145 0.046357144 0.88500005 228 26 28 255
-0.21998572 0.046357144 0.88500005 228 26 28 255
-0.24834856 0.047662858 0.87800002 228 26 28 255
-0.24667619 0.047662858 0.87800002 228 26 28 255
-0.2450038 0.047662858 0.87800002 228 26 28 255
-0.24333143 0.047662858 0.87800002 228 26 28 255
-0.24165905 0.047662858 0.87800002 228 26 28 255
-0.23998667 0.047662858 0.87800002 228 26 28 255
-0.2383143 0.047662858 0.87800002 228 26 28 255
-0.2366419 0.047662858 0.87800002 228 26 28 255
-0.23550478 0.047771432 0.88000005 228 26 28 255
-0.23382859 0.047771432 0.88000005 228 26 28 255
-0.23215239 0.047771432 0.88000005 228 26 28 255
-0.2304762 0.047771432 0.88000005 228 26 28 255
-0.22880001 0.047771432 0.88000005 228 26 28 255
-0.22764 0.047880001 0.88200003 228 26 28 255
-0.22672859 0.04804286 0.88500005 228 26 28 255
-0.22504286 0.04804286 0.88500005 228 26 28 255
-0.22335716 0.04804286 0.88500005 228 26 28 255
-0.22167145 0.04804286 0.88500005 228 26 28 255
-0.21998572 0.04804286 0.88500005 228 26 28 255
-0.24834856 0.049335238 0.87800002 228 26 28 255
-0.24667619 0.049335238 0.87800002 228 26 28 255
-0.2450038 0.049335238 0.87800002 228 26 28 255
-0.24333143 0.049335238 0.87800002 228 26 28 255
-0.24165905 0.049335238 0.87800002 228 26 28 255
-0.23998667 0.049335238 0.87800002 228 26 28 255
-0.2383143 0.049335238 0.87800002 228 26 28 255
-0.2366419 0.049335238 0.87800002 228 26 28 255
-0.23496953 0.049335238 0.87800002 228 26 28 255
-0.23382859 0.049447622 0.88000005 228 26 28 255
-0.23215239 0.049447622 0.88000005 228 26 28 255
-0.2304762 0.049447622 0.88000005 228 26 28 255
-0.22880001 0.049447622 0.88000005 228 26 28 255
-0.22764 0.049560003 0.88200003 228 26 28 255
-0.22672859 0.049728576 0.88500005 228 26 28 255
-0.22555144 0.049840953 0.88700002 228 26 28 255
-0.2238619 0.049840953 0.88700002 228 26 28 255
-0.22217238 0.049840953 0.88700002 228 26 28 255
-0.22048286 0.049840953 0.88700002 228 26 28 255
-0.25002095 0.051007621 0.87800002 228 26 28 255
-0.24750003 0.050833337 0.87500006 228 26 28 255
-0.24583337 0.050833337 0.87500006 228 26 28 255
-0.24416669 0.050833337 0.87500006 228 26 28 255
-0.24250001 0.050833337 0.87500006 228 26 28 255
-0.24083334 0.050833337 0.87500006 228 26 28 255
-0.23916668 0.050833337 0.87500006 228 26 28 255
-0.23750001 0.050833337 0.87500006 228 26 28 255
-0.23583335 0.050833337 0.87500006 228 26 28 255
-0.23496953 0.051007621 0.87800002 228 26 28 255
-0.23329714 0.051007621 0.87800002 228 26 28 255
-0.23215239 0.051123813 0.88000005 228 26 28 255
-0.2304762 0.051123813 0.88000005 228 26 28 255
-0.22880001 0.051123813 0.88000005 228 26 28 255
-0.22764 0.051240001 0.88200003 228 26 28 255
-0.22672859 0.051414289 0.88500005 228 26 28 255
-0.22555144 0.051530477 0.88700002 228 26 28 255
-0.2238619 0.051530477 0.88700002 228 26 28 255
-0.22217238 0.051530477 0.88700002 228 26 28 255
-0.2491667 0.052500002 0.87500006 228 26 28 255
-0.24693429 0.052379999 0.87300003 228 26 28 255
-0.24527143 0.052379999 0.87300003 228 26 28 255
-0.24360856 0.052379999 0.87300003 228 26 28 255
-0.24250001 0.052500002 0.87500006 228 26 28 255
-0.24028286 0.052379999 0.87300003 228 26 28 255
-0.23862001 0.052379999 0.87300003 228 26 28 255
-0.23695715 0.052379999 0.87300003 228 26 28 255
-0.23529428 0.052379999 0.87300003 228 26 28 255
-0.23416668 0.052500002 0.87500006 228 26 28 255
-0.23329714 0.052680001 0.87800002 228 26 28 255
-0.23162477 0.052680001 0.87800002 228 26 28 255
-0.22995239 0.052680001 0.87800002 228 26 28 255
-0.22880001 0.052800003 0.88000005 228 26 28 255
-0.2284143 0.053100005 0.88500005 228 26 28 255
-0.22672859 0.053100005 0.88500005 228 26 28 255
-0.22555144 0.05322 0.88700002 228 26 28 255
-0.2238619 0.05322 0.88700002 228 26 28 255
-0.22217238 0.05322 0.88700002 228 26 28 255
-0.25083336 0.054166671 0.87500006 228 26 28 255
-0.2491667 0.054166671 0.87500006 228 26 28 255
-0.24693429 0.054042861 0.87300003 228 26 28 255
-0.24527143 0.054042861 0.87300003 228 26 28 255
-0.24360856 0.054042861 0.87300003 228 26 28 255
-0.24194573 0.054042861 0.87300003 228 26 28 255
-0.24028286 0.054042861 0.87300003 228 26 28 255
-0.23862001 0.054042861 0.87300003 228 26 28 255
-0.23695715 0.054042861 0.87300003 228 26 28 255
-0.23529428 0.054042861 0.87300003 228 26 28 255
-0.23416668 0.054166671 0.87500006 228 26 28 255
-0.23329714 0.05435238 0.87800002 228 26 28 255
-0.23162477 0.05435238 0.87800002 228 26 28 255
-0.22995239 0.05435238 0.87800002 228 26 28 255
-0.22880001 0.054476194 0.88000005 228 26 28 255
-0.2284143 0.054785714 0.88500005 228 26 28 255
-0.22672859 0.054785714 0.88500005 228 26 28 255
-0.22606002 0.055033337 0.88900006 228 26 28 255
-0.22436668 0.055033337 0.88900006 228 26 28 255
-0.22618002 0.055900004 0.90300006 228 26 28 255
-0.25083336 0.055833336 0.87500006 228 26 28 255
-0.24859715 0.055705715 0.87300003 228 26 28 255
-0.24636859 0.055578098 0.87100005 228 26 28 255
-0.24470952 0.055578098 0.87100005 228 26 28 255
-0.24305049 0.055578098 0.87100005 228 26 28 255
-0.24194573 0.055705715 0.87300003 228 26 28 255
-0.24028286 0.055705715 0.87300003 228 26 28 255
-0.23862001 0.055705715 0.87300003 228 26 28 255
-0.23695715 0.055705715 0.87300003 228 26 28 255
-0.23529428 0.055705715 0.87300003 228 26 28 255
-0.23416668 0.055833336 0.87500006 228 26 28 255
-0.23329714 0.05602476 0.87800002 228 26 28 255
-0.23215239 0.056152385 0.88000005 228 26 28 255
-0.2304762 0.056152385 0.88000005 228 26 28 255
-0.22932 0.056280002 0.88200003 228 26 28 255
-0.2284143 0.05647143 0.88500005 228 26 28 255
-0.22724096 0.056599047 0.88700002 228 26 28 255
-0.22606002 0.056726668 0.88900006 228 26 28 255
-0.22487143 0.056854289 0.89100003 228 26 28 255
-0.22618002 0.057620004 0.90300006 228 26 28 255
-0.25026 0.057368573 0.87300003 228 26 28 255
-0.24859715 0.057368573 0.87300003 228 26 28 255
-0.24636859 0.057237145 0.87100005 228 26 28 255
-0.24470952 0.057237145 0.87100005 228 26 28 255
-0.24305049 0.057237145 0.87100005 228 26 28 255
-0.24139144 0.057237145 0.87100005 228 26 28 255
-0.23973238 0.057237145 0.87100005 228 26 28 255
-0.23807335 0.057237145 0.87100005 228 26 28 255
-0.2364143 0.057237145 0.87100005 228 26 28 255
-0.23529428 0.057368573 0.87300003 228 26 28 255
-0.23363143 0.057368573 0.87300003 228 26 28 255
-0.23250002 0.057500005 0.87500006 228 26 28 255
-0.23162477 0.057697143 0.87800002 228 26 28 255
-0.22995239 0.057697143 0.87800002 228 26 28 255
-0.22932 0.05796 0.88200003 228 26 28 255
-0.22893049 0.058288574 0.88700002 228 26 28 255
-0.22775336 0.058420002 0.88900006 228 26 28 255
-0.22606002 0.058420002 0.88900006 228 26 28 255
-0.22663811 0.059011433 0.89800006 228 26 28 255
-0.25134572 0.058896191 0.87100005 228 26 28 255
-0.24968669 0.058896191 0.87100005 228 26 28 255
-0.24802764 0.058896191 0.87100005 228 26 28 255
-0.24636859 0.058896191 0.87100005 228 26 28 255
-0.24470952 0.058896191 0.87100005 228 26 28 255
-0.24305049 0.058896191 0.87100005 228 26 28 255
-0.24139144 0.058896191 0.87100005 228 26 28 255
-0.23973238 0.058896191 0.87100005 228 26 28 255
-0.23807335 0.058896191 0.87100005 228 26 28 255
-0.2364143 0.058896191 0.87100005 228 26 28 255
-0.23475525 0.058896191 0.87100005 228 26 28 255
-0.23363143 0.059031431 0.87300003 228 26 28 255
-0.23250002 0.05916667 0.87500006 228 26 28 255
-0.23162477 0.059369523 0.87800002 228 26 28 255
-0.22995239 0.059369523 0.87800002 228 26 28 255
-0.22932 0.059640002 0.88200003 228 26 28 255
-0.22893049 0.059978094 0.88700002 228 26 28 255
-0.22775336 0.060113337 0.88900006 228 26 28 255
-0.22606002 0.060113337 0.88900006 228 26 28 255
-0.22613333 0.060586669 0.89600003 228 26 28 255
-0.25076857 0.060416192 0.86900002 228 26 28 255
-0.24911334 0.060416192 0.86900002 228 26 28 255
-0.24745809 0.060416192 0.86900002 228 26 28 255
-0.24580286 0.060416192 0.86900002 228 26 28 255
-0.24414763 0.060416192 0.86900002 228 26 28 255
-0.24249238 0.060416192 0.86900002 228 26 28 255
-0.24139144 0.060555242 0.87100005 228 26 28 255
-0.23973238 0.060555242 0.87100005 228 26 28 255
-0.23807335 0.060555242 0.87100005 228 26 28 255
-0.2364143 0.060555242 0.87100005 228 26 28 255
-0.23475525 0.060555242 0.87100005 228 26 28 255
-0.2330962 0.060555242 0.87100005 228 26 28 255
-0.23196857 0.060694285 0.87300003 228 26 28 255
-0.23162477 0.061041906 0.87800002 228 26 28 255
-0.22995239 0.061041906 0.87800002 228 26 28 255
-0.22932 0.061319999 0.88200003 228 26 28 255
-0.22893049 0.061667617 0.88700002 228 26 28 255
-0.22775336 0.061806668 0.88900006 228 26 28 255
-0.22656856 0.061945714 0.89100003 228 26 28 255
-0.22613333 0.062293336 0.89600003 228 26 28 255
-0.25076857 0.062071431 0.86900002 228 26 28 255
-0.24911334 0.062071431 0.86900002 228 26 28 255
-0.24745809 0.062071431 0.86900002 228 26 28 255
-0.24580286 0.062071431 0.86900002 228 26 28 255
-0.24414763 0.062071431 0.86900002 228 26 28 255
-0.24249238 0.062071431 0.86900002 228 26 28 255
-0.24083714 0.062071431 0.86900002 228 26 28 255
-0.23918191 0.062071431 0.86900002 228 26 28 255
-0.23752667 0.062071431 0.86900002 228 26 28 255
-0.2364143 0.062214289 0.87100005 228 26 28 255
-0.23475525 0.062214289 0.87100005 228 26 28 255
-0.2330962 0.062214289 0.87100005 228 26 28 255
-0.23196857 0.062357143 0.87300003 228 26 28 255
-0.23162477 0.062714286 0.87800002 228 26 28 255
-0.2304762 0.062857151 0.88000005 228 26 28 255
-0.22932 0.063000001 0.88200003 228 26 28 255
-0.22944668 0.063500002 0.88900006 228 26 28 255
-0.22826573 0.063642859 0.89100003 228 26 28 255
-0.22834858 0.06414286 0.89800006 228 26 28 255
-0.22663811 0.06414286 0.89800006 228 26 28 255
-0.25076857 0.063726671 0.86900002 228 26 28 255
-0.24911334 0.063726671 0.86900002 228 26 28 255
-0.24745809 0.063726671 0.86900002 228 26 28 255
-0.24580286 0.063726671 0.86900002 228 26 28 255
-0.24414763 0.063726671 0.86900002 228 26 28 255
-0.24249238 0.063726671 0.86900002 228 26 28 255
-0.24083714 0.063726671 0.86900002 228 26 28 255
-0.23918191 0.063726671 0.86900002 228 26 28 255
-0.23752667 0.063726671 0.86900002 228 26 28 255
-0.23587143 0.063726671 0.86900002 228 26 28 255
-0.23475525 0.063873336 0.87100005 228 26 28 255
-0.2330962 0.063873336 0.87100005 228 26 28 255
-0.23143716 0.063873336 0.87100005 228 26 28 255
-0.22977811 0.063873336 0.87100005 228 26 28 255
-0.22811906 0.063873336 0.87100005 228 26 28 255
-0.23062 0.065046668 0.88700002 228 26 28 255
-0.22996287 0.065340005 0.89100003 228 26 28 255
-0.23005906 0.065853335 0.89800006 228 26 28 255
-0.25019145 0.065231435 0.86700004 228 26 28 255
-0.24854001 0.065231435 0.86700004 228 26 28 255
-0.24745809 0.065381907 0.86900002 228 26 28 255
-0.24580286 0.065381907 0.86900002 228 26 28 255
-0.24414763 0.065381907 0.86900002 228 26 28 255
-0.24249238 0.065381907 0.86900002 228 26 28 255
-0.24028286 0.065231435 0.86700004 228 26 28 255
-0.23863144 0.065231435 0.86700004 228 26 28 255
-0.23752667 0.065381907 0.86900002 228 26 28 255
-0.23587143 0.065381907 0.86900002 228 26 28 255
-0.23421618 0.065381907 0.86900002 228 26 28 255
-0.23256096 0.065381907 0.86900002 228 26 28 255
-0.23143716 0.065532386 0.87100005 228 26 28 255
-0.22977811 0.065532386 0.87100005 228 26 28 255
-0.22811906 0.065532386 0.87100005 228 26 28 255
-0.23296 0.067413338 0.89600003 228 26 28 255
-0.23125334 0.067413338 0.89600003 228 26 28 255
-0.23005906 0.067563809 0.89800006 228 26 28 255
-0.25184289 0.066882864 0.86700004 228 26 28 255
-0.25019145 0.066882864 0.86700004 228 26 28 255
-0.24854001 0.066882864 0.86700004 228 26 28 255
-0.24688856 0.066882864 0.86700004 228 26 28 255
-0.24523716 0.066882864 0.86700004 228 26 28 255
-0.24358572 0.066882864 0.86700004 228 26 28 255
-0.24193428 0.066882864 0.86700004 228 26 28 255
-0.24028286 0.066882864 0.86700004 228 26 28 255
-0.23863144 0.066882864 0.86700004 228 26 28 255
-0.23698001 0.066882864 0.86700004 228 26 28 255
-0.23532858 0.066882864 0.86700004 228 26 28 255
-0.23421618 0.067037143 0.86900002 228 26 28 255
-0.23256096 0.067037143 0.86900002 228 26 28 255
-0.23090571 0.067037143 0.86900002 228 26 28 255
-0.22977811 0.067191429 0.87100005 228 26 28 255
-0.22811906 0.067191429 0.87100005 228 26 28 255
-0.23296 0.069120005 0.89600003 228 26 28 255
-0.23125334 0.069120005 0.89600003 228 26 28 255
-0.23005906 0.069274291 0.89800006 228 26 28 255
-0.25144765 0.06798096 0.86000001 228 26 28 255
-0.24980953 0.06798096 0.86000001 228 26 28 255
-0.25019145 0.068534292 0.86700004 228 26 28 255
-0.24854001 0.068534292 0.86700004 228 26 28 255
-0.24688856 0.068534292 0.86700004 228 26 28 255
-0.24523716 0.068534292 0.86700004 228 26 28 255
-0.24358572 0.068534292 0.86700004 228 26 28 255
-0.24193428 0.068534292 0.86700004 228 26 28 255
-0.24028286 0.068534292 0.86700004 228 26 28 255
-0.23863144 0.068534292 0.86700004 228 26 28 255
-0.23698001 0.068534292 0.86700004 228 26 28 255
-0.23532858 0.068534292 0.86700004 228 26 28 255
-0.23367715 0.068534292 0.86700004 228 26 28 255
-0.23256096 0.068692379 0.86900002 228 26 28 255
-0.23090571 0.068692379 0.86900002 228 26 28 255
-0.22977811 0.06885048 0.87100005 228 26 28 255
-0.23466668 0.070826672 0.89600003 228 26 28 255
-0.23296 0.070826672 0.89600003 228 26 28 255
-0.23125334 0.070826672 0.89600003 228 26 28 255
-0.25144765 0.069619045 0.86000001 228 26 28 255
-0.24980953 0.069619045 0.86000001 228 26 28 255
-0.25019145 0.070185721 0.86700004 228 26 28 255
-0.24854001 0.070185721 0.86700004 228 26 28 255
-0.24688856 0.070185721 0.86700004 228 26 28 255
-0.24523716 0.070185721 0.86700004 228 26 28 255
-0.24358572 0.070185721 0.86700004 228 26 28 255
-0.24193428 0.070185721 0.86700004 228 26 28 255
-0.23945144 0.069942862 0.86400002 228 26 28 255
-0.23780571 0.069942862 0.86400002 228 26 28 255
-0.23616 0.069942862 0.86400002 228 26 28 255
-0.23451428 0.069942862 0.86400002 228 26 28 255
-0.23367715 0.070185721 0.86700004 228 26 28 255
-0.23202573 0.070185721 0.86700004 228 26 28 255
-0.23090571 0.070347615 0.86900002 228 26 28 255
-0.22925048 0.070347615 0.86900002 228 26 28 255
-0.23466668 0.072533339 0.89600003 228 26 28 255
-0.23296 0.072533339 0.89600003 228 26 28 255
-0.23125334 0.072533339 0.89600003 228 26 28 255
-0.2530857 0.071257144 0.86000001 228 26 28 255
-0.25144765 0.071257144 0.86000001 228 26 28 255
-0.24980953 0.071257144 0.86000001 228 26 28 255
-0.25019145 0.071837142 0.86700004 228 26 28 255
-0.24767999 0.071588568 0.86400002 228 26 28 255
-0.24603428 0.071588568 0.86400002 228 26 28 255
-0.24438857 0.071588568 0.86400002 228 26 28 255
-0.24274287 0.071588568 0.86400002 228 26 28 255
-0.24109715 0.071588568 0.86400002 228 26 28 255
-0.23945144 0.071588568 0.86400002 228 26 28 255
-0.23780571 0.071588568 0.86400002 228 26 28 255
-0.23561335 0.07142286 0.86200005 228 26 28 255
-0.23397143 0.07142286 0.86200005 228 26 28 255
-0.23286858 0.071588568 0.86400002 228 26 28 255
-0.23122287 0.071588568 0.86400002 228 26 28 255
-0.23037429 0.071837142 0.86700004 228 26 28 255
-0.22872287 0.071837142 0.86700004 228 26 28 255
-0.2530857 0.072895236 0.86000001 228 26 28 255
-0.25144765 0.072895236 0.86000001 228 26 28 255
-0.24980953 0.072895236 0.86000001 228 26 28 255
-0.25019145 0.073488571 0.86700004 228 26 28 255
-0.24767999 0.07323429 0.86400002 228 26 28 255
-0.24603428 0.07323429 0.86400002 228 26 28 255
-0.24438857 0.07323429 0.86400002 228 26 28 255
-0.24274287 0.07323429 0.86400002 228 26 28 255
-0.24109715 0.07323429 0.86400002 228 26 28 255
-0.23889714 0.073064767 0.86200005 228 26 28 255
-0.23725525 0.073064767 0.86200005 228 26 28 255
-0.23561335 0.073064767 0.86200005 228 26 28 255
-0.23397143 0.073064767 0.86200005 228 26 28 255
-0.23286858 0.07323429 0.86400002 228 26 28 255
-0.23122287 0.07323429 0.86400002 228 26 28 255
-0.22957714 0.07323429 0.86400002 228 26 28 255
-0.22793142 0.07323429 0.86400002 228 26 28 255
-0.2536743 0.074706666 0.86200005 228 26 28 255
-0.25203237 0.074706666 0.86200005 228 26 28 255
-0.25039047 0.074706666 0.86200005 228 26 28 255
-0.24874857 0.074706666 0.86200005 228 26 28 255
-0.24710667 0.074706666 0.86200005 228 26 28 255
-0.24546477 0.074706666 0.86200005 228 26 28 255
-0.24382286 0.074706666 0.86200005 228 26 28 255
-0.24218096 0.074706666 0.86200005 228 26 28 255
-0.24053906 0.074706666 0.86200005 228 26 28 255
-0.23889714 0.074706666 0.86200005 228 26 28 255
-0.23725525 0.074706666 0.86200005 228 26 28 255
-0.23561335 0.074706666 0.86200005 228 26 28 255
-0.23397143 0.074706666 0.86200005 228 26 28 255
-0.23286858 0.074879996 0.86400002 228 26 28 255
-0.23122287 0.074879996 0.86400002 228 26 28 255
-0.22957714 0.074879996 0.86400002 228 26 28 255
-0.22793142 0.074879996 0.86400002 228 26 28 255
-0.2530857 0.076171428 0.86000001 228 26 28 255
-0.25144765 0.076171428 0.86000001 228 26 28 255
-0.24980953 0.076171428 0.86000001 228 26 28 255
-0.24874857 0.07634858 0.86200005 228 26 28 255
-0.24710667 0.07634858 0.86200005 228 26 28 255
-0.24546477 0.07634858 0.86200005 228 26 28 255
-0.24382286 0.07634858 0.86200005 228 26 28 255
-0.24218096 0.07634858 0.86200005 228 26 28 255
-0.24053906 0.07634858 0.86200005 228 26 28 255
-0.23889714 0.07634858 0.86200005 228 26 28 255
-0.23725525 0.07634858 0.86200005 228 26 28 255
-0.23561335 0.07634858 0.86200005 228 26 28 255
-0.23397143 0.07634858 0.86200005 228 26 28 255
-0.23232953 0.07634858 0.86200005 228 26 28 255
-0.23122287 0.076525718 0.86400002 228 26 28 255
-0.22957714 0.076525718 0.86400002 228 26 28 255
-0.22793142 0.076525718 0.86400002 228 26 28 255
-0.2530857 0.077809528 0.86000001 228 26 28 255
-0.25144765 0.077809528 0.86000001 228 26 28 255
-0.24980953 0.077809528 0.86000001 228 26 28 255
-0.24874857 0.07799048 0.86200005 228 26 28 255
-0.24653335 0.077809528 0.86000001 228 26 28 255
-0.24489525 0.077809528 0.86000001 228 26 28 255
-0.24325714 0.077809528 0.86000001 228 26 28 255
-0.24161904 0.077809528 0.86000001 228 26 28 255
-0.24053906 0.07799048 0.86200005 228 26 28 255
-0.23889714 0.07799048 0.86200005 228 26 28 255
-0.23725525 0.07799048 0.86200005 228 26 28 255
-0.23561335 0.07799048 0.86200005 228 26 28 255
-0.23397143 0.07799048 0.86200005 228 26 28 255
-0.23232953 0.07799048 0.86200005 228 26 28 255
-0.23122287 0.078171432 0.86400002 228 26 28 255
-0.22957714 0.078171432 0.86400002 228 26 28 255
-0.22793142 0.078171432 0.86400002 228 26 28 255
-0.23283336 0.080433331 0.88900006 228 26 28 255
-0.2530857 0.07944762 0.86000001 228 26 28 255
-0.25144765 0.07944762 0.86000001 228 26 28 255
-0.24980953 0.07944762 0.86000001 228 26 28 255
-0.24817145 0.07944762 0.86000001 228 26 28 255
-0.24653335 0.07944762 0.86000001 228 26 28 255
-0.24489525 0.07944762 0.86000001 228 26 28 255
-0.24325714 0.07944762 0.86000001 228 26 28 255
-0.24161904 0.07944762 0.86000001 228 26 28 255
-0.23998097 0.07944762 0.86000001 228 26 28 255
-0.23834287 0.07944762 0.86000001 228 26 28 255
-0.23670477 0.07944762 0.86000001 228 26 28 255
-0.23506667 0.07944762 0.86000001 228 26 28 255
-0.23397143 0.079632387 0.86200005 228 26 28 255
-0.23232953 0.079632387 0.86200005 228 26 28 255
-0.23122287 0.079817139 0.86400002 228 26 28 255
-0.23037429 0.080094293 0.86700004 228 26 28 255
-0.22872287 0.080094293 0.86700004 228 26 28 255
-0.23283336 0.082126677 0.88900006 228 26 28 255
-0.25203237 0.081274293 0.86200005 228 26 28 255
-0.24980953 0.081085712 0.86000001 228 26 28 255
-0.24817145 0.081085712 0.86000001 228 26 28 255
-0.24653335 0.081085712 0.86000001 228 26 28 255
-0.24489525 0.081085712 0.86000001 228 26 28 255
-0.24325714 0.081085712 0.86000001 228 26 28 255
-0.24161904 0.081085712 0.86000001 228 26 28 255
-0.23998097 0.081085712 0.86000001 228 26 28 255
-0.23834287 0.081085712 0.86000001 228 26 28 255
-0.23670477 0.081085712 0.86000001 228 26 28 255
-0.23506667 0.081085712 0.86000001 228 26 28 255
-0.23397143 0.081274293 0.86200005 228 26 28 255
-0.23232953 0.081274293 0.86200005 228 26 28 255
-0.23122287 0.08146286 0.86400002 228 26 28 255
-0.23037429 0.081745721 0.86700004 228 26 28 255
-0.22925048 0.081934281 0.86900002 228 26 28 255
-0.23230952 0.083631434 0.88700002 228 26 28 255
-0.23062 0.083631434 0.88700002 228 26 28 255
-0.25144765 0.082723811 0.86000001 228 26 28 255
-0.24980953 0.082723811 0.86000001 228 26 28 255
-0.24817145 0.082723811 0.86000001 228 26 28 255
-0.24596003 0.08253143 0.85800004 228 26 28 255
-0.24432573 0.08253143 0.85800004 228 26 28 255
-0.24269144 0.08253143 0.85800004 228 26 28 255
-0.24105716 0.08253143 0.85800004 228 26 28 255
-0.23942287 0.08253143 0.85800004 228 26 28 255
-0.23778857 0.08253143 0.85800004 228 26 28 255
-0.23670477 0.082723811 0.86000001 228 26 28 255
-0.23506667 0.082723811 0.86000001 228 26 28 255
-0.23342857 0.082723811 0.86000001 228 26 28 255
-0.23232953 0.082916193 0.86200005 228 26 28 255
-0.23122287 0.083108574 0.86400002 228 26 28 255
-0.23090571 0.083589524 0.86900002 228 26 28 255
-0.23030573 0.083974287 0.87300003 228 26 28 255
-0.23178573 0.085128576 0.88500005 228 26 28 255
-0.23062 0.085320957 0.88700002 228 26 28 255
-0.25144765 0.084361903 0.86000001 228 26 28 255
-0.24864763 0.083969526 0.85600007 228 26 28 255
-0.24701715 0.083969526 0.85600007 228 26 28 255
-0.24538668 0.083969526 0.85600007 228 26 28 255
-0.24318667 0.083773337 0.85400003 228 26 28 255
-0.24156001 0.083773337 0.85400003 228 26 28 255
-0.23993334 0.083773337 0.85400003 228 26 28 255
-0.23830667 0.083773337 0.85400003 228 26 28 255
-0.23668 0.083773337 0.85400003 228 26 28 255
-0.23560382 0.083969526 0.85600007 228 26 28 255
-0.23397334 0.083969526 0.85600007 228 26 28 255
-0.23342857 0.084361903 0.86000001 228 26 28 255
-0.23179048 0.084361903 0.86000001 228 26 28 255
-0.23122287 0.084754288 0.86400002 228 26 28 255
-0.23090571 0.085244767 0.86900002 228 26 28 255
-0.23083335 0.085833341 0.87500006 228 26 28 255
-0.23178573 0.086814292 0.88500005 228 26 28 255
-0.23062 0.087010473 0.88700002 228 26 28 255
-0.25205809 0.085100003 0.85100001 228 26 28 255
-0.25043714 0.085100003 0.85100001 228 26 28 255
-0.24881618 0.085100003 0.85100001 228 26 28 255
-0.24719523 0.085100003 0.85100001 228 26 28 255
-0.24644002 0.085400008 0.85400003 228 26 28 255
-0.24481335 0.085400008 0.85400003 228 26 28 255
-0.24318667 0.085400008 0.85400003 228 26 28 255
-0.24156001 0.085400008 0.85400003 228 26 28 255
-0.23993334 0.085400008 0.85400003 228 26 28 255
-0.23830667 0.085400008 0.85400003 228 26 28 255
-0.23668 0.085400008 0.85400003 228 26 28 255
-0.23560382 0.085600004 0.85600007 228 26 28 255
-0.23397334 0.085600004 0.85600007 228 26 28 255
-0.23234287 0.085600004 0.85600007 228 26 28 255
-0.23125143 0.0858 0.85800004 228 26 28 255
-0.23015238 0.086000003 0.86000001 228 26 28 255
-0.23090571 0.086900003 0.86900002 228 26 28 255
-0.23162477 0.087800004 0.87800002 228 26 28 255
-0.23178573 0.088500001 0.88500005 228 26 28 255
-0.25367904 0.086720951 0.85100001 228 26 28 255
-0.25205809 0.086720951 0.85100001 228 26 28 255
-0.25043714 0.086720951 0.85100001 228 26 28 255
-0.24881618 0.086720951 0.85100001 228 26 28 255
-0.24719523 0.086720951 0.85100001 228 26 28 255
-0.24644002 0.087026671 0.85400003 228 26 28 255
-0.24395333 0.086720951 0.85100001 228 26 28 255
-0.24233238 0.086720951 0.85100001 228 26 28 255
-0.24156001 0.087026671 0.85400003 228 26 28 255
-0.23909047 0.086720951 0.85100001 228 26 28 255
-0.23746952 0.086720951 0.85100001 228 26 28 255
-0.23668 0.087026671 0.85400003 228 26 28 255
-0.23505335 0.087026671 0.85400003 228 26 28 255
-0.23397334 0.087230489 0.85600007 228 26 28 255
-0.23234287 0.087230489 0.85600007 228 26 28 255
-0.23125143 0.087434292 0.85800004 228 26 28 255
-0.23015238 0.087638095 0.86000001 228 26 28 255
-0.23143716 0.08875905 0.87100005 228 26 28 255
-0.23215239 0.089676194 0.88000005 228 26 28 255
-0.23100001 0.089879997 0.88200003 228 26 28 255
-0.25367904 0.088341907 0.85100001 228 26 28 255
-0.25205809 0.088341907 0.85100001 228 26 28 255
-0.25043714 0.088341907 0.85100001 228 26 28 255
-0.24881618 0.088341907 0.85100001 228 26 28 255
-0.24719523 0.088341907 0.85100001 228 26 28 255
-0.24557428 0.088341907 0.85100001 228 26 28 255
-0.24395333 0.088341907 0.85100001 228 26 28 255
-0.24233238 0.088341907 0.85100001 228 26 28 255
-0.24071144 0.088341907 0.85100001 228 26 28 255
-0.23909047 0.088341907 0.85100001 228 26 28 255
-0.23746952 0.088341907 0.85100001 228 26 28 255
-0.23584858 0.088341907 0.85100001 228 26 28 255
-0.23505335 0.088653341 0.85400003 228 26 28 255
-0.23342668 0.088653341 0.85400003 228 26 28 255
-0.23234287 0.088860959 0.85600007 228 26 28 255
-0.2307124 0.088860959 0.85600007 228 26 28 255
-0.23015238 0.089276187 0.86000001 228 26 28 255
-0.23196857 0.090625718 0.87300003 228 26 28 255
-0.23162477 0.091144763 0.87800002 228 26 28 255
-0.23100001 0.091559999 0.88200003 228 26 28 255
-0.25529999 0.089962855 0.85100001 228 26 28 255
-0.25367904 0.089962855 0.85100001 228 26 28 255
-0.25205809 0.089962855 0.85100001 228 26 28 255
-0.25043714 0.089962855 0.85100001 228 26 28 255
-0.24881618 0.089962855 0.85100001 228 26 28 255
-0.24719523 0.089962855 0.85100001 228 26 28 255
-0.24557428 0.089962855 0.85100001 228 26 28 255
-0.24395333 0.089962855 0.85100001 228 26 28 255
-0.24233238 0.089962855 0.85100001 228 26 28 255
-0.24071144 0.089962855 0.85100001 228 26 28 255
-0.23909047 0.089962855 0.85100001 228 26 28 255
-0.23746952 0.089962855 0.85100001 228 26 28 255
-0.23584858 0.089962855 0.85100001 228 26 28 255
-0.23505335 0.090280004 0.85400003 228 26 28 255
-0.23342668 0.090280004 0.85400003 228 26 28 255
-0.23234287 0.090491436 0.85600007 228 26 28 255
-0.2307124 0.090491436 0.85600007 228 26 28 255
-0.23363143 0.092288569 0.87300003 228 26 28 255
-0.23196857 0.092288569 0.87300003 228 26 28 255
-0.23162477 0.092817143 0.87800002 228 26 28 255
-0.25529999 0.091583811 0.85100001 228 26 28 255
-0.25367904 0.091583811 0.85100001 228 26 28 255
-0.25205809 0.091583811 0.85100001 228 26 28 255
-0.25043714 0.091583811 0.85100001 228 26 28 255
-0.24881618 0.091583811 0.85100001 228 26 28 255
-0.24719523 0.091583811 0.85100001 228 26 28 255
-0.24557428 0.091583811 0.85100001 228 26 28 255
-0.24395333 0.091583811 0.85100001 228 26 28 255
-0.24233238 0.091583811 0.85100001 228 26 28 255
-0.24071144 0.091583811 0.85100001 228 26 28 255
-0.23909047 0.091583811 0.85100001 228 26 28 255
-0.23746952 0.091583811 0.85100001 228 26 28 255
-0.23668 0.091906674 0.85400003 228 26 28 255
-0.23505335 0.091906674 0.85400003 228 26 28 255
-0.23397334 0.092121907 0.85600007 228 26 28 255
-0.23234287 0.092121907 0.85600007 228 26 28 255
-0.23125143 0.092337146 0.85800004 228 26 28 255
-0.23015238 0.092552379 0.86000001 228 26 28 255
-0.23329714 0.09448953 0.87800002 228 26 28 255
-0.23162477 0.09448953 0.87800002 228 26 28 255
-0.25470001 0.092985712 0.84900004 228 26 28 255
-0.25308284 0.092985712 0.84900004 228 26 28 255
-0.25146571 0.092985712 0.84900004 228 26 28 255
-0.24984857 0.092985712 0.84900004 228 26 28 255
-0.24823143 0.092985712 0.84900004 228 26 28 255
-0.24719523 0.093204759 0.85100001 228 26 28 255
-0.24557428 0.093204759 0.85100001 228 26 28 255
-0.24395333 0.093204759 0.85100001 228 26 28 255
-0.24233238 0.093204759 0.85100001 228 26 28 255
-0.24071144 0.093204759 0.85100001 228 26 28 255
-0.23909047 0.093204759 0.85100001 228 26 28 255
-0.23746952 0.093204759 0.85100001 228 26 28 255
-0.23584858 0.093204759 0.85100001 228 26 28 255
-0.23505335 0.093533337 0.85400003 228 26 28 255
-0.23397334 0.093752392 0.85600007 228 26 28 255
-0.23234287 0.093752392 0.85600007 228 26 28 255
-0.23125143 0.093971431 0.85800004 228 26 28 255
-0.22961715 0.093971431 0.85800004 228 26 28 255
-0.23382859 0.096380956 0.88000005 228 26 28 255
-0.23215239 0.096380956 0.88000005 228 26 28 255
-0.25470001 0.094602861 0.84900004 228 26 28 255
-0.25308284 0.094602861 0.84900004 228 26 28 255
-0.25146571 0.094602861 0.84900004 228 26 28 255
-0.24984857 0.094602861 0.84900004 228 26 28 255
-0.24823143 0.094602861 0.84900004 228 26 28 255
-0.24719523 0.094825715 0.85100001 228 26 28 255
-0.24557428 0.094825715 0.85100001 228 26 28 255
-0.24395333 0.094825715 0.85100001 228 26 28 255
-0.24233238 0.094825715 0.85100001 228 26 28 255
-0.24071144 0.094825715 0.85100001 228 26 28 255
-0.23909047 0.094825715 0.85100001 228 26 28 255
-0.23746952 0.094825715 0.85100001 228 26 28 255
-0.23584858 0.094825715 0.85100001 228 26 28 255
-0.23505335 0.095160007 0.85400003 228 26 28 255
-0.23342668 0.095160007 0.85400003 228 26 28 255
-0.23234287 0.095382862 0.85600007 228 26 28 255
-0.23125143 0.095605716 0.85800004 228 26 28 255
-0.22961715 0.095605716 0.85800004 228 26 28 255
-0.22798286 0.095605716 0.85800004 228 26 28 255
-0.25410002 0.09599334 0.84700006 228 26 28 255
-0.25248668 0.09599334 0.84700006 228 26 28 255
-0.25087336 0.09599334 0.84700006 228 26 28 255
-0.24926002 0.09599334 0.84700006 228 26 28 255
-0.24764669 0.09599334 0.84700006 228 26 28 255
-0.24661429 0.096220002 0.84900004 228 26 28 255
-0.24557428 0.096446671 0.85100001 228 26 28 255
-0.24395333 0.096446671 0.85100001 228 26 28 255
-0.24233238 0.096446671 0.85100001 228 26 28 255
-0.24071144 0.096446671 0.85100001 228 26 28 255
-0.23909047 0.096446671 0.85100001 228 26 28 255
-0.23746952 0.096446671 0.85100001 228 26 28 255
-0.23584858 0.096446671 0.85100001 228 26 28 255
-0.23505335 0.09678667 0.85400003 228 26 28 255
-0.23342668 0.09678667 0.85400003 228 26 28 255
-0.23234287 0.097013339 0.85600007 228 26 28 255
-0.23125143 0.097240001 0.85800004 228 26 28 255
-0.22961715 0.097240001 0.85800004 228 26 28 255
-0.25350001 0.09737619 0.84500003 228 26 28 255
-0.25189048 0.09737619 0.84500003 228 26 28 255
-0.25028098 0.09737619 0.84500003 228 26 28 255
-0.24867144 0.09737619 0.84500003 228 26 28 255
-0.24706191 0.09737619 0.84500003 228 26 28 255
-0.24661429 0.097837143 0.84900004 228 26 28 255
-0.24499714 0.097837143 0.84900004 228 26 28 255
-0.24338001 0.097837143 0.84900004 228 26 28 255
-0.24176286 0.097837143 0.84900004 228 26 28 255
-0.24014573 0.097837143 0.84900004 228 26 28 255
-0.23852858 0.097837143 0.84900004 228 26 28 255
-0.23691143 0.097837143 0.84900004 228 26 28 255
-0.23584858 0.098067619 0.85100001 228 26 28 255
-0.23505335 0.098413341 0.85400003 228 26 28 255
-0.23342668 0.098413341 0.85400003 228 26 28 255
-0.23234287 0.098643817 0.85600007 228 26 28 255
-0.23179048 0.099104762 0.86000001 228 26 28 255
-0.23015238 0.099104762 0.86000001 228 26 28 255
-0.23250002 0.10083334 0.87500006 228 26 28 255
-0.23162477 0.10117905 0.87800002 228 26 28 255
-0.25350001 0.098985717 0.84500003 228 26 28 255
-0.25189048 0.098985717 0.84500003 228 26 28 255
-0.25028098 0.098985717 0.84500003 228 26 28 255
-0.24867144 0.098985717 0.84500003 228 26 28 255
-0.24706191 0.098985717 0.84500003 228 26 28 255
-0.24603336 0.099220008 0.84700006 228 26 28 255
-0.24442002 0.099220008 0.84700006 228 26 28 255
-0.24280669 0.099220008 0.84700006 228 26 28 255
-0.24119335 0.099220008 0.84700006 228 26 28 255
-0.23958002 0.099220008 0.84700006 228 26 28 255
-0.23852858 0.099454284 0.84900004 228 26 28 255
-0.23691143 0.099454284 0.84900004 228 26 28 255
-0.23584858 0.099688575 0.85100001 228 26 28 255
-0.23505335 0.10004 0.85400003 228 26 28 255
-0.23397334 0.10027429 0.85600007 228 26 28 255
-0.23234287 0.10027429 0.85600007 228 26 28 255
-0.23179048 0.10074285 0.86000001 228 26 28 255
-0.23363143 0.10226572 0.87300003 228 26 28 255
-0.23196857 0.10226572 0.87300003 228 26 28 255
-0.23162477 0.10285143 0.87800002 228 26 28 255
-0.2529 0.10035715 0.84300005 228 26 28 255
-0.25129429 0.10035715 0.84300005 228 26 28 255
-0.25028098 0.10059524 0.84500003 228 26 28 255
-0.24867144 0.10059524 0.84500003 228 26 28 255
-0.24706191 0.10059524 0.84500003 228 26 28 255
-0.24545239 0.10059524 0.84500003 228 26 28 255
-0.24384286 0.10059524 0.84500003 228 26 28 255
-0.24223334 0.10059524 0.84500003 228 26 28 255
-0.24062382 0.10059524 0.84500003 228 26 28 255
-0.2390143 0.10059524 0.84500003 228 26 28 255
-0.23796669 0.10083334 0.84700006 228 26 28 255
-0.23635335 0.10083334 0.84700006 228 26 28 255
-0.23529428 0.10107143 0.84900004 228 26 28 255
-0.23422763 0.10130952 0.85100001 228 26 28 255
-0.23342668 0.10166667 0.85400003 228 26 28 255
-0.23234287 0.10190476 0.85600007 228 26 28 255
-0.23179048 0.10238095 0.86000001 228 26 28 255
-0.23363143 0.10392857 0.87300003 228 26 28 255
-0.23196857 0.10392857 0.87300003 228 26 28 255
-0.25450572 0.10196286 0.84300005 228 26 28 255
-0.2529 0.10196286 0.84300005 228 26 28 255
-0.25129429 0.10196286 0.84300005 228 26 28 255
-0.25028098 0.10220476 0.84500003 228 26 28 255
-0.24867144 0.10220476 0.84500003 228 26 28 255
-0.24706191 0.10220476 0.84500003 228 26 28 255
-0.24545239 0.10220476 0.84500003 228 26 28 255
-0.24384286 0.10220476 0.84500003 228 26 28 255
-0.24223334 0.10220476 0.84500003 228 26 28 255
-0.24062382 0.10220476 0.84500003 228 26 28 255
-0.2390143 0.10220476 0.84500003 228 26 28 255
-0.23796669 0.10244668 0.84700006 228 26 28 255
-0.23635335 0.10244668 0.84700006 228 26 28 255
-0.23474002 0.10244668 0.84700006 228 26 28 255
-0.23422763 0.10293048 0.85100001 228 26 28 255
-0.23342668 0.10329334 0.85400003 228 26 28 255
-0.23234287 0.10353524 0.85600007 228 26 28 255
-0.2307124 0.10353524 0.85600007 228 26 28 255
-0.22908193 0.10353524 0.85600007 228 26 28 255
-0.25450572 0.10356858 0.84300005 228 26 28 255
-0.2529 0.10356858 0.84300005 228 26 28 255
-0.25129429 0.10356858 0.84300005 228 26 28 255
-0.24968857 0.10356858 0.84300005 228 26 28 255
-0.24867144 0.10381429 0.84500003 228 26 28 255
-0.24706191 0.10381429 0.84500003 228 26 28 255
-0.24545239 0.10381429 0.84500003 228 26 28 255
-0.24326573 0.10356858 0.84300005 228 26 28 255
-0.24166001 0.10356858 0.84300005 228 26 28 255
-0.24005431 0.10356858 0.84300005 228 26 28 255
-0.2390143 0.10381429 0.84500003 228 26 28 255
-0.23740476 0.10381429 0.84500003 228 26 28 255
-0.23579524 0.10381429 0.84500003 228 26 28 255
-0.23418571 0.10381429 0.84500003 228 26 28 255
-0.23312669 0.10406001 0.84700006 228 26 28 255
-0.23260666 0.10455143 0.85100001 228 26 28 255
-0.23234287 0.10516573 0.85600007 228 26 28 255
-0.2307124 0.10516573 0.85600007 228 26 28 255
-0.23416668 0.10750001 0.87500006 228 26 28 255
-0.23250002 0.10750001 0.87500006 228 26 28 255
-0.2529 0.10517429 0.84300005 228 26 28 255
-0.25129429 0.10517429 0.84300005 228 26 28 255
-0.24968857 0.10517429 0.84300005 228 26 28 255
-0.24808288 0.10517429 0.84300005 228 26 28 255
-0.24647717 0.10517429 0.84300005 228 26 28 255
-0.24487145 0.10517429 0.84300005 228 26 28 255
-0.24326573 0.10517429 0.84300005 228 26 28 255
-0.24166001 0.10517429 0.84300005 228 26 28 255
-0.24005431 0.10517429 0.84300005 228 26 28 255
-0.23844859 0.10517429 0.84300005 228 26 28 255
-0.23684287 0.10517429 0.84300005 228 26 28 255
-0.23579524 0.10542382 0.84500003 228 26 28 255
-0.23418571 0.10542382 0.84500003 228 26 28 255
-0.23257619 0.10542382 0.84500003 228 26 28 255
-0.23260666 0.10617238 0.85100001 228 26 28 255
-0.23234287 0.1067962 0.85600007 228 26 28 255
-0.2307124 0.1067962 0.85600007 228 26 28 255
-0.2555038 0.10652667 0.84100002 228 26 28 255
-0.25390193 0.10652667 0.84100002 228 26 28 255
-0.25229999 0.10652667 0.84100002 228 26 28 255
-0.25069809 0.10652667 0.84100002 228 26 28 255
-0.24909618 0.10652667 0.84100002 228 26 28 255
-0.24808288 0.10678001 0.84300005 228 26 28 255
-0.24647717 0.10678001 0.84300005 228 26 28 255
-0.24487145 0.10678001 0.84300005 228 26 28 255
-0.24326573 0.10678001 0.84300005 228 26 28 255
-0.24166001 0.10678001 0.84300005 228 26 28 255
-0.24005431 0.10678001 0.84300005 228 26 28 255
-0.23844859 0.10678001 0.84300005 228 26 28 255
-0.23684287 0.10678001 0.84300005 228 26 28 255
-0.23523717 0.10678001 0.84300005 228 26 28 255
-0.23418571 0.10703333 0.84500003 228 26 28 255
-0.23257619 0.10703333 0.84500003 228 26 28 255
-0.23206 0.10754 0.84900004 228 26 28 255
-0.23288572 0.10868 0.85800004 228 26 28 255
-0.23125143 0.10868 0.85800004 228 26 28 255
-0.25710571 0.10812858 0.84100002 228 26 28 255
-0.2555038 0.10812858 0.84100002 228 26 28 255
-0.25390193 0.10812858 0.84100002 228 26 28 255
-0.25229999 0.10812858 0.84100002 228 26 28 255
-0.25069809 0.10812858 0.84100002 228 26 28 255
-0.24909618 0.10812858 0.84100002 228 26 28 255
-0.2474943 0.10812858 0.84100002 228 26 28 255
-0.24647717 0.10838572 0.84300005 228 26 28 255
-0.24487145 0.10838572 0.84300005 228 26 28 255
-0.24268858 0.10812858 0.84100002 228 26 28 255
-0.24108668 0.10812858 0.84100002 228 26 28 255
-0.23948476 0.10812858 0.84100002 228 26 28 255
-0.23788287 0.10812858 0.84100002 228 26 28 255
-0.23684287 0.10838572 0.84300005 228 26 28 255
-0.23523717 0.10838572 0.84300005 228 26 28 255
-0.23363145 0.10838572 0.84300005 228 26 28 255
-0.23202573 0.10838572 0.84300005 228 26 28 255
-0.23096667 0.10864286 0.84500003 228 26 28 255
-0.23342857 0.11057143 0.86000001 228 26 28 255
-0.25747716 0.10920857 0.83700001 228 26 28 255
-0.25588286 0.10920857 0.83700001 228 26 28 255
-0.25489619 0.10946953 0.83900005 228 26 28 255
-0.2532981 0.10946953 0.83900005 228 26 28 255
-0.25170001 0.10946953 0.83900005 228 26 28 255
-0.25010192 0.10946953 0.83900005 228 26 28 255
-0.24850382 0.10946953 0.83900005 228 26 28 255
-0.24690571 0.10946953 0.83900005 228 26 28 255
-0.24530764 0.10946953 0.83900005 228 26 28 255
-0.24429047 0.10973047 0.84100002 228 26 28 255
-0.24268858 0.10973047 0.84100002 228 26 28 255
-0.24108668 0.10973047 0.84100002 228 26 28 255
-0.23948476 0.10973047 0.84100002 228 26 28 255
-0.23788287 0.10973047 0.84100002 228 26 28 255
-0.23684287 0.10999143 0.84300005 228 26 28 255
-0.23523717 0.10999143 0.84300005 228 26 28 255
-0.23363145 0.10999143 0.84300005 228 26 28 255
-0.23202573 0.10999143 0.84300005 228 26 28 255
-0.23096667 0.11025239 0.84500003 228 26 28 255
-0.23342857 0.11220952 0.86000001 228 26 28 255
-0.25747716 0.11080286 0.83700001 228 26 28 255
-0.25588286 0.11080286 0.83700001 228 26 28 255
-0.25428855 0.11080286 0.83700001 228 26 28 255
-0.25269428 0.11080286 0.83700001 228 26 28 255
-0.25170001 0.11106763 0.83900005 228 26 28 255
-0.25010192 0.11106763 0.83900005 228 26 28 255
-0.24850382 0.11106763 0.83900005 228 26 28 255
-0.24690571 0.11106763 0.83900005 228 26 28 255
-0.24530764 0.11106763 0.83900005 228 26 28 255
-0.24370953 0.11106763 0.83900005 228 26 28 255
-0.24268858 0.11133238 0.84100002 228 26 28 255
-0.24108668 0.11133238 0.84100002 228 26 28 255
-0.23891525 0.11106763 0.83900005 228 26 28 255
-0.23731716 0.11106763 0.83900005 228 26 28 255
-0.23628095 0.11133238 0.84100002 228 26 28 255
-0.23523717 0.11159715 0.84300005 228 26 28 255
-0.23363145 0.11159715 0.84300005 228 26 28 255
-0.23257619 0.11186191 0.84500003 228 26 28 255
-0.23096667 0.11186191 0.84500003 228 26 28 255
-0.23098572 0.11265619 0.85100001 228 26 28 255
-0.25747716 0.11239714 0.83700001 228 26 28 255
-0.25588286 0.11239714 0.83700001 228 26 28 255
-0.25428855 0.11239714 0.83700001 228 26 28 255
-0.25269428 0.11239714 0.83700001 228 26 28 255
-0.25170001 0.11266571 0.83900005 228 26 28 255
-0.25010192 0.11266571 0.83900005 228 26 28 255
-0.24850382 0.11266571 0.83900005 228 26 28 255
-0.24690571 0.11266571 0.83900005 228 26 28 255
-0.24530764 0.11266571 0.83900005 228 26 28 255
-0.24370953 0.11266571 0.83900005 228 26 28 255
-0.24268858 0.11293428 0.84100002 228 26 28 255
-0.24051334 0.11266571 0.83900005 228 26 28 255
-0.23891525 0.11266571 0.83900005 228 26 28 255
-0.23731716 0.11266571 0.83900005 228 26 28 255
-0.23628095 0.11293428 0.84100002 228 26 28 255
-0.23523717 0.11320286 0.84300005 228 26 28 255
-0.23363145 0.11320286 0.84300005 228 26 28 255
-0.23257619 0.11347143 0.84500003 228 26 28 255
-0.23096667 0.11347143 0.84500003 228 26 28 255
-0.23098572 0.11427715 0.85100001 228 26 28 255
-0.25747716 0.11399143 0.83700001 228 26 28 255
-0.25588286 0.11399143 0.83700001 228 26 28 255
-0.25428855 0.11399143 0.83700001 228 26 28 255
-0.25269428 0.11399143 0.83700001 228 26 28 255
-0.25170001 0.11426381 0.83900005 228 26 28 255
-0.25010192 0.11426381 0.83900005 228 26 28 255
-0.24850382 0.11426381 0.83900005 228 26 28 255
-0.24690571 0.11426381 0.83900005 228 26 28 255
-0.24530764 0.11426381 0.83900005 228 26 28 255
-0.24370953 0.11426381 0.83900005 228 26 28 255
-0.24211143 0.11426381 0.83900005 228 26 28 255
-0.24051334 0.11426381 0.83900005 228 26 28 255
-0.23891525 0.11426381 0.83900005 228 26 28 255
-0.23731716 0.11426381 0.83900005 228 26 28 255
-0.23628095 0.11453619 0.84100002 228 26 28 255
-0.23467906 0.11453619 0.84100002 228 26 28 255
-0.23363145 0.11480858 0.84300005 228 26 28 255
-0.23257619 0.11508096 0.84500003 228 26 28 255
-0.23096667 0.11508096 0.84500003 228 26 28 255
-0.22935715 0.11508096 0.84500003 228 26 28 255
-0.25747716 0.11558571 0.83700001 228 26 28 255
-0.25588286 0.11558571 0.83700001 228 26 28 255
-0.25428855 0.11558571 0.83700001 228 26 28 255
-0.25269428 0.11558571 0.83700001 228 26 28 255
-0.2511 0.11558571 0.83700001 228 26 28 255
-0.25010192 0.11586191 0.83900005 228 26 28 255
-0.24850382 0.11586191 0.83900005 228 26 28 255
-0.24690571 0.11586191 0.83900005 228 26 28 255
-0.24530764 0.11586191 0.83900005 228 26 28 255
-0.24370953 0.11586191 0.83900005 228 26 28 255
-0.24211143 0.11586191 0.83900005 228 26 28 255
-0.24051334 0.11586191 0.83900005 228 26 28 255
-0.23891525 0.11586191 0.83900005 228 26 28 255
-0.23731716 0.11586191 0.83900005 228 26 28 255
-0.23628095 0.11613809 0.84100002 228 26 28 255
-0.23467906 0.11613809 0.84100002 228 26 28 255
-0.23363145 0.11641429 0.84300005 228 26 28 255
-0.23367715 0.11724286 0.84900004 228 26 28 255
-0.23342668 0.11793333 0.85400003 228 26 28 255
-0.23451428 0.11931429 0.86400002 228 26 28 255
-0.25686193 0.1169 0.83500004 228 26 28 255
-0.25527143 0.1169 0.83500004 228 26 28 255
-0.25428855 0.11718 0.83700001 228 26 28 255
-0.25269428 0.11718 0.83700001 228 26 28 255
-0.2511 0.11718 0.83700001 228 26 28 255
-0.24950573 0.11718 0.83700001 228 26 28 255
-0.24850382 0.11746 0.83900005 228 26 28 255
-0.24690571 0.11746 0.83900005 228 26 28 255
-0.24530764 0.11746 0.83900005 228 26 28 255
-0.24370953 0.11746 0.83900005 228 26 28 255
-0.24211143 0.11746 0.83900005 228 26 28 255
-0.24051334 0.11746 0.83900005 228 26 28 255
-0.23891525 0.11746 0.83900005 228 26 28 255
-0.23731716 0.11746 0.83900005 228 26 28 255
-0.23628095 0.11774001 0.84100002 228 26 28 255
-0.23523717 0.11802001 0.84300005 228 26 28 255
-0.23474002 0.11858001 0.84700006 228 26 28 255
-0.23505335 0.11956 0.85400003 228 26 28 255
-0.23342668 0.11956 0.85400003 228 26 28 255
-0.23342857 0.1204 0.86000001 228 26 28 255
-0.23286858 0.12096 0.86400002 228 26 28 255
-0.25686193 0.11849048 0.83500004 228 26 28 255
-0.25527143 0.11849048 0.83500004 228 26 28 255
-0.25428855 0.11877429 0.83700001 228 26 28 255
-0.25269428 0.11877429 0.83700001 228 26 28 255
-0.2511 0.11877429 0.83700001 228 26 28 255
-0.24950573 0.11877429 0.83700001 228 26 28 255
-0.24850382 0.1190581 0.83900005 228 26 28 255
-0.24690571 0.1190581 0.83900005 228 26 28 255
-0.24530764 0.1190581 0.83900005 228 26 28 255
-0.24370953 0.1190581 0.83900005 228 26 28 255
-0.24211143 0.1190581 0.83900005 228 26 28 255
-0.24051334 0.1190581 0.83900005 228 26 28 255
-0.23891525 0.1190581 0.83900005 228 26 28 255
-0.23731716 0.1190581 0.83900005 228 26 28 255
-0.23628095 0.11934191 0.84100002 228 26 28 255
-0.23579524 0.11990952 0.84500003 228 26 28 255
-0.23529428 0.12047715 0.84900004 228 26 28 255
-0.23505335 0.12118667 0.85400003 228 26 28 255
-0.23342668 0.12118667 0.85400003 228 26 28 255
-0.23288572 0.12175429 0.85800004 228 26 28 255
-0.23179048 0.1220381 0.86000001 228 26 28 255
-0.25588286 0.12036857 0.83700001 228 26 28 255
-0.25428855 0.12036857 0.83700001 228 26 28 255
-0.25269428 0.12036857 0.83700001 228 26 28 255
-0.2511 0.12036857 0.83700001 228 26 28 255
-0.25010192 0.1206562 0.83900005 228 26 28 255
-0.24850382 0.1206562 0.83900005 228 26 28 255
-0.2474943 0.12094381 0.84100002 228 26 28 255
