ply
format ascii 1.0
comment PCL generated
element vertex 981
property float x
property float y
property float z
property uchar red
property uchar green
property uchar blue
property uchar alpha
element camera 0
property float view_px
property float view_py
property float view_pz
property float x_axisx
property float x_axisy
property float x_axisz
property float y_axisx
property float y_axisy
property float y_axisz
property float z_axisx
property float z_axisy
property float z_axisz
property float focal
property float scalex
property float scaley
property float centerx
property float centery
property int viewportx
property int viewporty
property float k1
property float k2
end_header
0.18034001 0.033020001 0.88900006 152 78 163 255
0.18203335 0.033020001 0.88900006 152 78 163 255
0.18372667 0.033020001 0.88900006 152 78 163 255
0.18542001 0.033020001 0.88900006 152 78 163 255
0.16480571 0.035377141 0.90600002 152 78 163 255
0.16561238 0.035181906 0.90100002 152 78 163 255
0.16677144 0.035064761 0.89800006 152 78 163 255
0.1684819 0.035064761 0.89800006 152 78 163 255
0.16981333 0.034986667 0.89600003 152 78 163 255
0.17113715 0.034908574 0.89400005 152 78 163 255
0.17226 0.034791429 0.89100003 152 78 163 255
0.17395715 0.034791429 0.89100003 152 78 163 255
0.17565429 0.034791429 0.89100003 152 78 163 255
0.17735143 0.034791429 0.89100003 152 78 163 255
0.17864667 0.034713335 0.88900006 152 78 163 255
0.18034001 0.034713335 0.88900006 152 78 163 255
0.18203335 0.034713335 0.88900006 152 78 163 255
0.18372667 0.034713335 0.88900006 152 78 163 255
0.18542001 0.034713335 0.88900006 152 78 163 255
0.18711334 0.034713335 0.88900006 152 78 163 255
0.16561238 0.036898095 0.90100002 152 78 163 255
0.16677144 0.036775239 0.89800006 152 78 163 255
0.1684819 0.036775239 0.89800006 152 78 163 255
0.16981333 0.036693335 0.89600003 152 78 163 255
0.17056286 0.03648857 0.89100003 152 78 163 255
0.17226 0.03648857 0.89100003 152 78 163 255
0.17395715 0.03648857 0.89100003 152 78 163 255
0.17565429 0.03648857 0.89100003 152 78 163 255
0.17695335 0.036406666 0.88900006 152 78 163 255
0.17864667 0.036406666 0.88900006 152 78 163 255
0.18034001 0.036406666 0.88900006 152 78 163 255
0.18203335 0.036406666 0.88900006 152 78 163 255
0.18372667 0.036406666 0.88900006 152 78 163 255
0.18542001 0.036406666 0.88900006 152 78 163 255
0.18711334 0.036406666 0.88900006 152 78 163 255
0.16598001 0.038700003 0.90300006 152 78 163 255
0.16677144 0.038485717 0.89800006 152 78 163 255
0.16810668 0.038399998 0.89600003 152 78 163 255
0.16886571 0.038185716 0.89100003 152 78 163 255
0.17056286 0.038185716 0.89100003 152 78 163 255
0.17187335 0.0381 0.88900006 152 78 163 255
0.17356667 0.0381 0.88900006 152 78 163 255
0.17526001 0.0381 0.88900006 152 78 163 255
0.17695335 0.0381 0.88900006 152 78 163 255
0.17824475 0.038014285 0.88700002 152 78 163 255
0.17993428 0.038014285 0.88700002 152 78 163 255
0.18162382 0.038014285 0.88700002 152 78 163 255
0.18372667 0.0381 0.88900006 152 78 163 255
0.18542001 0.0381 0.88900006 152 78 163 255
0.18753429 0.038185716 0.89100003 152 78 163 255
0.16598001 0.04042 0.90300006 152 78 163 255
0.16677144 0.040196192 0.89800006 152 78 163 255
0.16810668 0.040106665 0.89600003 152 78 163 255
0.16886571 0.039882861 0.89100003 152 78 163 255
0.17018001 0.039793335 0.88900006 152 78 163 255
0.17187335 0.039793335 0.88900006 152 78 163 255
0.17356667 0.039793335 0.88900006 152 78 163 255
0.17526001 0.039793335 0.88900006 152 78 163 255
0.17655525 0.039703812 0.88700002 152 78 163 255
0.17824475 0.039703812 0.88700002 152 78 163 255
0.17993428 0.039703812 0.88700002 152 78 163 255
0.18162382 0.039703812 0.88700002 152 78 163 255
0.18331334 0.039703812 0.88700002 152 78 163 255
0.18500286 0.039703812 0.88700002 152 78 163 255
0.18753429 0.039882861 0.89100003 152 78 163 255
0.16677144 0.04190667 0.89800006 152 78 163 255
0.16716857 0.041579999 0.89100003 152 78 163 255
0.16848667 0.041486669 0.88900006 152 78 163 255
0.17018001 0.041486669 0.88900006 152 78 163 255
0.17187335 0.041486669 0.88900006 152 78 163 255
0.1731762 0.041393336 0.88700002 152 78 163 255
0.17486572 0.041393336 0.88700002 152 78 163 255
0.17655525 0.041393336 0.88700002 152 78 163 255
0.17824475 0.041393336 0.88700002 152 78 163 255
0.17952858 0.041300002 0.88500005 152 78 163 255
0.1806 0.041160002 0.88200003 152 78 163 255
0.18228 0.041160002 0.88200003 152 78 163 255
0.18396001 0.041160002 0.88200003 152 78 163 255
0.18564001 0.041160002 0.88200003 152 78 163 255
0.16677144 0.043617148 0.89800006 152 78 163 255
0.16716857 0.043277144 0.89100003 152 78 163 255
0.16848667 0.043180004 0.88900006 152 78 163 255
0.17018001 0.043180004 0.88900006 152 78 163 255
0.17148668 0.043082856 0.88700002 152 78 163 255
0.1731762 0.043082856 0.88700002 152 78 163 255
0.17486572 0.043082856 0.88700002 152 78 163 255
0.17655525 0.043082856 0.88700002 152 78 163 255
0.17824475 0.043082856 0.88700002 152 78 163 255
0.17952858 0.042985715 0.88500005 152 78 163 255
0.1806 0.04284 0.88200003 152 78 163 255
0.18228 0.04284 0.88200003 152 78 163 255
0.18396001 0.04284 0.88200003 152 78 163 255
0.18521905 0.042742856 0.88000005 152 78 163 255
0.18689524 0.042742856 0.88000005 152 78 163 255
0.1664 0.045226667 0.89600003 152 78 163 255
0.16716857 0.04497429 0.89100003 152 78 163 255
0.16848667 0.044873338 0.88900006 152 78 163 255
0.17018001 0.044873338 0.88900006 152 78 163 255
0.17148668 0.044772383 0.88700002 152 78 163 255
0.1731762 0.044772383 0.88700002 152 78 163 255
0.17486572 0.044772383 0.88700002 152 78 163 255
0.17655525 0.044772383 0.88700002 152 78 163 255
0.17784287 0.044671431 0.88500005 152 78 163 255
0.17952858 0.044671431 0.88500005 152 78 163 255
0.1806 0.044520002 0.88200003 152 78 163 255
0.18186668 0.04441905 0.88000005 152 78 163 255
0.18354288 0.04441905 0.88000005 152 78 163 255
0.18521905 0.04441905 0.88000005 152 78 163 255
0.18689524 0.04441905 0.88000005 152 78 163 255
0.16602859 0.046828572 0.89400005 152 78 163 255
0.16716857 0.046671428 0.89100003 152 78 163 255
0.16848667 0.046566669 0.88900006 152 78 163 255
0.17018001 0.046566669 0.88900006 152 78 163 255
0.17148668 0.046461903 0.88700002 152 78 163 255
0.1731762 0.046461903 0.88700002 152 78 163 255
0.17486572 0.046461903 0.88700002 152 78 163 255
0.17615715 0.046357144 0.88500005 152 78 163 255
0.17784287 0.046357144 0.88500005 152 78 163 255
0.17892002 0.0462 0.88200003 152 78 163 255
0.1806 0.0462 0.88200003 152 78 163 255
0.18186668 0.046095241 0.88000005 152 78 163 255
0.18354288 0.046095241 0.88000005 152 78 163 255
0.18521905 0.046095241 0.88000005 152 78 163 255
0.18689524 0.046095241 0.88000005 152 78 163 255
0.16547143 0.048368573 0.89100003 152 78 163 255
0.16679335 0.048260003 0.88900006 152 78 163 255
0.16848667 0.048260003 0.88900006 152 78 163 255
0.16979714 0.04815143 0.88700002 152 78 163 255
0.17148668 0.04815143 0.88700002 152 78 163 255
0.1731762 0.04815143 0.88700002 152 78 163 255
0.17486572 0.04815143 0.88700002 152 78 163 255
0.17615715 0.04804286 0.88500005 152 78 163 255
0.17784287 0.04804286 0.88500005 152 78 163 255
0.17892002 0.047880001 0.88200003 152 78 163 255
0.1806 0.047880001 0.88200003 152 78 163 255
0.18228 0.047880001 0.88200003 152 78 163 255
0.18396001 0.047880001 0.88200003 152 78 163 255
0.18564001 0.047880001 0.88200003 152 78 163 255
0.18689524 0.047771432 0.88000005 152 78 163 255
0.18857144 0.047771432 0.88000005 152 78 163 255
0.16547143 0.050065715 0.89100003 152 78 163 255
0.16679335 0.049953338 0.88900006 152 78 163 255
0.16848667 0.049953338 0.88900006 152 78 163 255
0.16979714 0.049840953 0.88700002 152 78 163 255
0.17148668 0.049840953 0.88700002 152 78 163 255
0.1731762 0.049840953 0.88700002 152 78 163 255
0.17486572 0.049840953 0.88700002 152 78 163 255
0.17615715 0.049728576 0.88500005 152 78 163 255
0.17784287 0.049728576 0.88500005 152 78 163 255
0.17892002 0.049560003 0.88200003 152 78 163 255
0.1806 0.049560003 0.88200003 152 78 163 255
0.18228 0.049560003 0.88200003 152 78 163 255
0.18396001 0.049560003 0.88200003 152 78 163 255
0.18564001 0.049560003 0.88200003 152 78 163 255
0.18689524 0.049447622 0.88000005 152 78 163 255
0.18857144 0.049447622 0.88000005 152 78 163 255
0.16547143 0.051762857 0.89100003 152 78 163 255
0.16679335 0.051646668 0.88900006 152 78 163 255
0.16810761 0.051530477 0.88700002 152 78 163 255
0.16979714 0.051530477 0.88700002 152 78 163 255
0.17110001 0.051414289 0.88500005 152 78 163 255
0.17278571 0.051414289 0.88500005 152 78 163 255
0.17447144 0.051414289 0.88500005 152 78 163 255
0.17615715 0.051414289 0.88500005 152 78 163 255
0.17784287 0.051414289 0.88500005 152 78 163 255
0.17892002 0.051240001 0.88200003 152 78 163 255
0.1806 0.051240001 0.88200003 152 78 163 255
0.18228 0.051240001 0.88200003 152 78 163 255
0.18396001 0.051240001 0.88200003 152 78 163 255
0.18564001 0.051240001 0.88200003 152 78 163 255
0.18689524 0.051123813 0.88000005 152 78 163 255
0.18857144 0.051123813 0.88000005 152 78 163 255
0.16510001 0.053340003 0.88900006 152 78 163 255
0.16641809 0.05322 0.88700002 152 78 163 255
0.16810761 0.05322 0.88700002 152 78 163 255
0.1694143 0.053100005 0.88500005 152 78 163 255
0.17110001 0.053100005 0.88500005 152 78 163 255
0.17220001 0.052920002 0.88200003 152 78 163 255
0.17388 0.052920002 0.88200003 152 78 163 255
0.17556001 0.052920002 0.88200003 152 78 163 255
0.17724 0.052920002 0.88200003 152 78 163 255
0.17892002 0.052920002 0.88200003 152 78 163 255
0.18019049 0.052800003 0.88000005 152 78 163 255
0.18186668 0.052800003 0.88000005 152 78 163 255
0.18396001 0.052920002 0.88200003 152 78 163 255
0.18564001 0.052920002 0.88200003 152 78 163 255
0.18732001 0.052920002 0.88200003 152 78 163 255
0.18900001 0.052920002 0.88200003 152 78 163 255
0.16435716 0.054785714 0.88500005 152 78 163 255
0.16604286 0.054785714 0.88500005 152 78 163 255
0.16716 0.0546 0.88200003 152 78 163 255
0.16884001 0.0546 0.88200003 152 78 163 255
0.17013335 0.054476194 0.88000005 152 78 163 255
0.17180952 0.054476194 0.88000005 152 78 163 255
0.17348573 0.054476194 0.88000005 152 78 163 255
0.17516191 0.054476194 0.88000005 152 78 163 255
0.1768381 0.054476194 0.88000005 152 78 163 255
0.1785143 0.054476194 0.88000005 152 78 163 255
0.18019049 0.054476194 0.88000005 152 78 163 255
0.18186668 0.054476194 0.88000005 152 78 163 255
0.18354288 0.054476194 0.88000005 152 78 163 255
0.18564001 0.0546 0.88200003 152 78 163 255
0.18732001 0.0546 0.88200003 152 78 163 255
0.18900001 0.0546 0.88200003 152 78 163 255
0.1638 0.056280002 0.88200003 152 78 163 255
0.16548002 0.056280002 0.88200003 152 78 163 255
0.16716 0.056280002 0.88200003 152 78 163 255
0.16845715 0.056152385 0.88000005 152 78 163 255
0.17013335 0.056152385 0.88000005 152 78 163 255
0.17180952 0.056152385 0.88000005 152 78 163 255
0.17348573 0.056152385 0.88000005 152 78 163 255
0.17516191 0.056152385 0.88000005 152 78 163 255
0.1768381 0.056152385 0.88000005 152 78 163 255
0.1785143 0.056152385 0.88000005 152 78 163 255
0.18019049 0.056152385 0.88000005 152 78 163 255
0.18186668 0.056152385 0.88000005 152 78 163 255
0.18354288 0.056152385 0.88000005 152 78 163 255
0.18521905 0.056152385 0.88000005 152 78 163 255
0.18732001 0.056280002 0.88200003 152 78 163 255
0.18900001 0.056280002 0.88200003 152 78 163 255
0.1638 0.05796 0.88200003 152 78 163 255
0.16548002 0.05796 0.88200003 152 78 163 255
0.16678096 0.057828575 0.88000005 152 78 163 255
0.16845715 0.057828575 0.88000005 152 78 163 255
0.17013335 0.057828575 0.88000005 152 78 163 255
0.17141905 0.057697143 0.87800002 152 78 163 255
0.17309143 0.057697143 0.87800002 152 78 163 255
0.17516191 0.057828575 0.88000005 152 78 163 255
0.1768381 0.057828575 0.88000005 152 78 163 255
0.1785143 0.057828575 0.88000005 152 78 163 255
0.18019049 0.057828575 0.88000005 152 78 163 255
0.18186668 0.057828575 0.88000005 152 78 163 255
0.18354288 0.057828575 0.88000005 152 78 163 255
0.18521905 0.057828575 0.88000005 152 78 163 255
0.18732001 0.05796 0.88200003 152 78 163 255
0.18900001 0.05796 0.88200003 152 78 163 255
0.1638 0.059640002 0.88200003 152 78 163 255
0.16510478 0.059504766 0.88000005 152 78 163 255
0.16678096 0.059504766 0.88000005 152 78 163 255
0.16845715 0.059504766 0.88000005 152 78 163 255
0.16974667 0.059369523 0.87800002 152 78 163 255
0.17141905 0.059369523 0.87800002 152 78 163 255
0.17309143 0.059369523 0.87800002 152 78 163 255
0.17476381 0.059369523 0.87800002 152 78 163 255
0.1764362 0.059369523 0.87800002 152 78 163 255
0.17810857 0.059369523 0.87800002 152 78 163 255
0.17978096 0.059369523 0.87800002 152 78 163 255
0.18145333 0.059369523 0.87800002 152 78 163 255
0.1831257 0.059369523 0.87800002 152 78 163 255
0.18521905 0.059504766 0.88000005 152 78 163 255
0.18732001 0.059640002 0.88200003 152 78 163 255
0.18900001 0.059640002 0.88200003 152 78 163 255
0.16342857 0.061180957 0.88000005 152 78 163 255
0.16510478 0.061180957 0.88000005 152 78 163 255
0.16678096 0.061180957 0.88000005 152 78 163 255
0.16807428 0.061041906 0.87800002 152 78 163 255
0.16974667 0.061041906 0.87800002 152 78 163 255
0.17141905 0.061041906 0.87800002 152 78 163 255
0.17309143 0.061041906 0.87800002 152 78 163 255
0.17476381 0.061041906 0.87800002 152 78 163 255
0.1764362 0.061041906 0.87800002 152 78 163 255
0.17810857 0.061041906 0.87800002 152 78 163 255
0.17978096 0.061041906 0.87800002 152 78 163 255
0.18145333 0.061041906 0.87800002 152 78 163 255
0.1831257 0.061041906 0.87800002 152 78 163 255
0.18479811 0.061041906 0.87800002 152 78 163 255
0.18689524 0.061180957 0.88000005 152 78 163 255
0.18900001 0.061319999 0.88200003 152 78 163 255
0.16340667 0.063500002 0.88900006 152 78 163 255
0.16342857 0.062857151 0.88000005 152 78 163 255
0.16510478 0.062857151 0.88000005 152 78 163 255
0.16640191 0.062714286 0.87800002 152 78 163 255
0.16807428 0.062714286 0.87800002 152 78 163 255
0.16974667 0.062714286 0.87800002 152 78 163 255
0.17083335 0.062500007 0.87500006 152 78 163 255
0.17250001 0.062500007 0.87500006 152 78 163 255
0.17416668 0.062500007 0.87500006 152 78 163 255
0.17583334 0.062500007 0.87500006 152 78 163 255
0.17750001 0.062500007 0.87500006 152 78 163 255
0.17978096 0.062714286 0.87800002 152 78 163 255
0.18145333 0.062714286 0.87800002 152 78 163 255
0.18250002 0.062500007 0.87500006 152 78 163 255
0.18416668 0.062500007 0.87500006 152 78 163 255
0.18689524 0.062857151 0.88000005 152 78 163 255
0.18857144 0.062857151 0.88000005 152 78 163 255
0.16342857 0.064533338 0.88000005 152 78 163 255
0.16472952 0.064386666 0.87800002 152 78 163 255
0.16640191 0.064386666 0.87800002 152 78 163 255
0.16807428 0.064386666 0.87800002 152 78 163 255
0.16916668 0.064166673 0.87500006 152 78 163 255
0.17083335 0.064166673 0.87500006 152 78 163 255
0.17210571 0.06402 0.87300003 152 78 163 255
0.17376857 0.06402 0.87300003 152 78 163 255
0.17583334 0.064166673 0.87500006 152 78 163 255
0.17750001 0.064166673 0.87500006 152 78 163 255
0.17916667 0.064166673 0.87500006 152 78 163 255
0.18083334 0.064166673 0.87500006 152 78 163 255
0.18250002 0.064166673 0.87500006 152 78 163 255
0.18416668 0.064166673 0.87500006 152 78 163 255
0.18647048 0.064386666 0.87800002 152 78 163 255
0.18857144 0.064533338 0.88000005 152 78 163 255
0.16342857 0.066209525 0.88000005 152 78 163 255
0.16472952 0.066059045 0.87800002 152 78 163 255
0.16583334 0.065833338 0.87500006 152 78 163 255
0.16750002 0.065833338 0.87500006 152 78 163 255
0.16916668 0.065833338 0.87500006 152 78 163 255
0.17044286 0.065682858 0.87300003 152 78 163 255
0.17210571 0.065682858 0.87300003 152 78 163 255
0.17376857 0.065682858 0.87300003 152 78 163 255
0.17543143 0.065682858 0.87300003 152 78 163 255
0.1770943 0.065682858 0.87300003 152 78 163 255
0.17875715 0.065682858 0.87300003 152 78 163 255
0.18042001 0.065682858 0.87300003 152 78 163 255
0.18208286 0.065682858 0.87300003 152 78 163 255
0.18374571 0.065682858 0.87300003 152 78 163 255
0.18647048 0.066059045 0.87800002 152 78 163 255
0.18857144 0.066209525 0.88000005 152 78 163 255
0.16342857 0.067885719 0.88000005 152 78 163 255
0.16510478 0.067885719 0.88000005 152 78 163 255
0.16583334 0.06750001 0.87500006 152 78 163 255
0.16750002 0.06750001 0.87500006 152 78 163 255
0.16878001 0.067345716 0.87300003 152 78 163 255
0.17005238 0.067191429 0.87100005 152 78 163 255
0.17171144 0.067191429 0.87100005 152 78 163 255
0.1733705 0.067191429 0.87100005 152 78 163 255
0.17543143 0.067345716 0.87300003 152 78 163 255
0.1770943 0.067345716 0.87300003 152 78 163 255
0.17875715 0.067345716 0.87300003 152 78 163 255
0.18042001 0.067345716 0.87300003 152 78 163 255
0.18208286 0.067345716 0.87300003 152 78 163 255
0.18374571 0.067345716 0.87300003 152 78 163 255
0.18647048 0.067731433 0.87800002 152 78 163 255
0.18857144 0.067885719 0.88000005 152 78 163 255
0.16342857 0.069561906 0.88000005 152 78 163 255
0.16472952 0.069403812 0.87800002 152 78 163 255
0.16583334 0.069166675 0.87500006 152 78 163 255
0.16711715 0.069008574 0.87300003 152 78 163 255
0.16878001 0.069008574 0.87300003 152 78 163 255
0.17005238 0.06885048 0.87100005 152 78 163 255
0.17171144 0.06885048 0.87100005 152 78 163 255
0.1733705 0.06885048 0.87100005 152 78 163 255
0.17502953 0.06885048 0.87100005 152 78 163 255
0.17668858 0.06885048 0.87100005 152 78 163 255
0.17875715 0.069008574 0.87300003 152 78 163 255
0.18042001 0.069008574 0.87300003 152 78 163 255
0.18208286 0.069008574 0.87300003 152 78 163 255
0.18374571 0.069008574 0.87300003 152 78 163 255
0.18647048 0.069403812 0.87800002 152 78 163 255
0.18857144 0.069561906 0.88000005 152 78 163 255
0.1638 0.071400002 0.88200003 152 78 163 255
0.16416667 0.07083334 0.87500006 152 78 163 255
0.16545428 0.070671432 0.87300003 152 78 163 255
0.16711715 0.070671432 0.87300003 152 78 163 255
0.16839333 0.070509523 0.87100005 152 78 163 255
0.17005238 0.070509523 0.87100005 152 78 163 255
0.17171144 0.070509523 0.87100005 152 78 163 255
0.1733705 0.070509523 0.87100005 152 78 163 255
0.17502953 0.070509523 0.87100005 152 78 163 255
0.17668858 0.070509523 0.87100005 152 78 163 255
0.17834763 0.070509523 0.87100005 152 78 163 255
0.18000667 0.070509523 0.87100005 152 78 163 255
0.18208286 0.070671432 0.87300003 152 78 163 255
0.18374571 0.070671432 0.87300003 152 78 163 255
0.18583335 0.07083334 0.87500006 152 78 163 255
0.18900001 0.071400002 0.88200003 152 78 163 255
0.1638 0.073080003 0.88200003 152 78 163 255
0.16416667 0.072500005 0.87500006 152 78 163 255
0.16545428 0.07233429 0.87300003 152 78 163 255
0.16673429 0.072168581 0.87100005 152 78 163 255
0.16839333 0.072168581 0.87100005 152 78 163 255
0.17005238 0.072168581 0.87100005 152 78 163 255
0.17131715 0.072002858 0.86900002 152 78 163 255
0.17297238 0.072002858 0.86900002 152 78 163 255
0.17502953 0.072168581 0.87100005 152 78 163 255
0.17668858 0.072168581 0.87100005 152 78 163 255
0.17834763 0.072168581 0.87100005 152 78 163 255
0.18000667 0.072168581 0.87100005 152 78 163 255
0.18166572 0.072168581 0.87100005 152 78 163 255
0.18332477 0.072168581 0.87100005 152 78 163 255
0.18540858 0.07233429 0.87300003 152 78 163 255
0.18900001 0.073080003 0.88200003 152 78 163 255
0.16342857 0.074590482 0.88000005 152 78 163 255
0.16416667 0.07416667 0.87500006 152 78 163 255
0.16545428 0.07399714 0.87300003 152 78 163 255
0.16673429 0.073827624 0.87100005 152 78 163 255
0.16839333 0.073827624 0.87100005 152 78 163 255
0.16966191 0.073658101 0.86900002 152 78 163 255
0.17131715 0.073658101 0.86900002 152 78 163 255
0.17297238 0.073658101 0.86900002 152 78 163 255
0.17462763 0.073658101 0.86900002 152 78 163 255
0.17628285 0.073658101 0.86900002 152 78 163 255
0.17834763 0.073827624 0.87100005 152 78 163 255
0.18000667 0.073827624 0.87100005 152 78 163 255
0.18166572 0.073827624 0.87100005 152 78 163 255
0.18332477 0.073827624 0.87100005 152 78 163 255
0.18540858 0.07399714 0.87300003 152 78 163 255
0.18707143 0.07399714 0.87300003 152 78 163 255
0.16305715 0.076093338 0.87800002 152 78 163 255
0.16416667 0.075833343 0.87500006 152 78 163 255
0.16545428 0.075659998 0.87300003 152 78 163 255
0.16673429 0.075486667 0.87100005 152 78 163 255
0.16839333 0.075486667 0.87100005 152 78 163 255
0.16966191 0.075313337 0.86900002 152 78 163 255
0.17131715 0.075313337 0.86900002 152 78 163 255
0.17297238 0.075313337 0.86900002 152 78 163 255
0.17462763 0.075313337 0.86900002 152 78 163 255
0.17628285 0.075313337 0.86900002 152 78 163 255
0.1779381 0.075313337 0.86900002 152 78 163 255
0.17959332 0.075313337 0.86900002 152 78 163 255
0.18166572 0.075486667 0.87100005 152 78 163 255
0.18332477 0.075486667 0.87100005 152 78 163 255
0.18540858 0.075659998 0.87300003 152 78 163 255
0.18707143 0.075659998 0.87300003 152 78 163 255
0.16305715 0.077765711 0.87800002 152 78 163 255
0.16379143 0.077322856 0.87300003 152 78 163 255
0.16507524 0.077145718 0.87100005 152 78 163 255
0.16673429 0.077145718 0.87100005 152 78 163 255
0.16839333 0.077145718 0.87100005 152 78 163 255
0.16966191 0.076968573 0.86900002 152 78 163 255
0.17131715 0.076968573 0.86900002 152 78 163 255
0.17297238 0.076968573 0.86900002 152 78 163 255
0.17462763 0.076968573 0.86900002 152 78 163 255
0.17628285 0.076968573 0.86900002 152 78 163 255
0.1779381 0.076968573 0.86900002 152 78 163 255
0.17959332 0.076968573 0.86900002 152 78 163 255
0.18166572 0.077145718 0.87100005 152 78 163 255
0.18332477 0.077145718 0.87100005 152 78 163 255
0.18498382 0.077145718 0.87100005 152 78 163 255
0.18707143 0.077322856 0.87300003 152 78 163 255
0.16305715 0.079438098 0.87800002 152 78 163 255
0.16379143 0.078985721 0.87300003 152 78 163 255
0.16507524 0.078804761 0.87100005 152 78 163 255
0.16673429 0.078804761 0.87100005 152 78 163 255
0.16800666 0.078623809 0.86900002 152 78 163 255
0.16966191 0.078623809 0.86900002 152 78 163 255
0.17131715 0.078623809 0.86900002 152 78 163 255
0.17257428 0.078442864 0.86700004 152 78 163 255
0.17422572 0.078442864 0.86700004 152 78 163 255
0.17628285 0.078623809 0.86900002 152 78 163 255
0.17752859 0.078442864 0.86700004 152 78 163 255
0.17918001 0.078442864 0.86700004 152 78 163 255
0.18083145 0.078442864 0.86700004 152 78 163 255
0.18332477 0.078804761 0.87100005 152 78 163 255
0.18498382 0.078804761 0.87100005 152 78 163 255
0.18664286 0.078804761 0.87100005 152 78 163 255
0.16250001 0.080833338 0.87500006 152 78 163 255
0.16341619 0.080463812 0.87100005 152 78 163 255
0.16469619 0.080279045 0.86900002 152 78 163 255
0.16635144 0.080279045 0.86900002 152 78 163 255
0.16800666 0.080279045 0.86900002 152 78 163 255
0.16927144 0.080094293 0.86700004 152 78 163 255
0.17092286 0.080094293 0.86700004 152 78 163 255
0.17257428 0.080094293 0.86700004 152 78 163 255
0.17422572 0.080094293 0.86700004 152 78 163 255
0.17587714 0.080094293 0.86700004 152 78 163 255
0.17752859 0.080094293 0.86700004 152 78 163 255
0.17918001 0.080094293 0.86700004 152 78 163 255
0.18083145 0.080094293 0.86700004 152 78 163 255
0.18290381 0.080279045 0.86900002 152 78 163 255
0.18413429 0.080094293 0.86700004 152 78 163 255
0.18514286 0.079817139 0.86400002 152 78 163 255
0.18678857 0.079817139 0.86400002 152 78 163 255
0.16250001 0.082500003 0.87500006 152 78 163 255
0.16304097 0.081934281 0.86900002 152 78 163 255
0.16469619 0.081934281 0.86900002 152 78 163 255
0.16635144 0.081934281 0.86900002 152 78 163 255
0.16762 0.081745721 0.86700004 152 78 163 255
0.16927144 0.081745721 0.86700004 152 78 163 255
0.17092286 0.081745721 0.86700004 152 78 163 255
0.17257428 0.081745721 0.86700004 152 78 163 255
0.17422572 0.081745721 0.86700004 152 78 163 255
0.17526856 0.08146286 0.86400002 152 78 163 255
0.17691429 0.08146286 0.86400002 152 78 163 255
0.17856 0.08146286 0.86400002 152 78 163 255
0.18020572 0.08146286 0.86400002 152 78 163 255
0.18185143 0.08146286 0.86400002 152 78 163 255
0.18349715 0.08146286 0.86400002 152 78 163 255
0.18514286 0.08146286 0.86400002 152 78 163 255
0.18678857 0.08146286 0.86400002 152 78 163 255
0.16250001 0.084166676 0.87500006 152 78 163 255
0.16210286 0.083108574 0.86400002 152 78 163 255
0.16374858 0.083108574 0.86400002 152 78 163 255
0.16596858 0.083397143 0.86700004 152 78 163 255
0.16703999 0.083108574 0.86400002 152 78 163 255
0.16868572 0.083108574 0.86400002 152 78 163 255
0.17033143 0.083108574 0.86400002 152 78 163 255
0.17197715 0.083108574 0.86400002 152 78 163 255
0.17362286 0.083108574 0.86400002 152 78 163 255
0.17526856 0.083108574 0.86400002 152 78 163 255
0.17691429 0.083108574 0.86400002 152 78 163 255
0.17856 0.083108574 0.86400002 152 78 163 255
0.17978859 0.082916193 0.86200005 152 78 163 255
0.18143049 0.082916193 0.86200005 152 78 163 255
0.18307239 0.082916193 0.86200005 152 78 163 255
0.1847143 0.082916193 0.86200005 152 78 163 255
0.1863562 0.082916193 0.86200005 152 78 163 255
0.16212857 0.085637145 0.87300003 152 78 163 255
0.16210286 0.084754288 0.86400002 152 78 163 255
0.16374858 0.084754288 0.86400002 152 78 163 255
0.16539429 0.084754288 0.86400002 152 78 163 255
0.16703999 0.084754288 0.86400002 152 78 163 255
0.16868572 0.084754288 0.86400002 152 78 163 255
0.17033143 0.084754288 0.86400002 152 78 163 255
0.17197715 0.084754288 0.86400002 152 78 163 255
0.17362286 0.084754288 0.86400002 152 78 163 255
0.17486286 0.0845581 0.86200005 152 78 163 255
0.17650478 0.0845581 0.86200005 152 78 163 255
0.17814668 0.0845581 0.86200005 152 78 163 255
0.17978859 0.0845581 0.86200005 152 78 163 255
0.18143049 0.0845581 0.86200005 152 78 163 255
0.18307239 0.0845581 0.86200005 152 78 163 255
0.1847143 0.0845581 0.86200005 152 78 163 255
0.1863562 0.0845581 0.86200005 152 78 163 255
0.15881142 0.086400002 0.86400002 152 78 163 255
0.16008572 0.086199999 0.86200005 152 78 163 255
0.16172762 0.086199999 0.86200005 152 78 163 255
0.16336954 0.086199999 0.86200005 152 78 163 255
0.16501144 0.086199999 0.86200005 152 78 163 255
0.16665334 0.086199999 0.86200005 152 78 163 255
0.16829525 0.086199999 0.86200005 152 78 163 255
0.16993715 0.086199999 0.86200005 152 78 163 255
0.17157905 0.086199999 0.86200005 152 78 163 255
0.17322095 0.086199999 0.86200005 152 78 163 255
0.17486286 0.086199999 0.86200005 152 78 163 255
0.17650478 0.086199999 0.86200005 152 78 163 255
0.17814668 0.086199999 0.86200005 152 78 163 255
0.17978859 0.086199999 0.86200005 152 78 163 255
0.18143049 0.086199999 0.86200005 152 78 163 255
0.18307239 0.086199999 0.86200005 152 78 163 255
0.1847143 0.086199999 0.86200005 152 78 163 255
0.1863562 0.086199999 0.86200005 152 78 163 255
0.15680191 0.087841913 0.86200005 152 78 163 255
0.15844382 0.087841913 0.86200005 152 78 163 255
0.16008572 0.087841913 0.86200005 152 78 163 255
0.16172762 0.087841913 0.86200005 152 78 163 255
0.16336954 0.087841913 0.86200005 152 78 163 255
0.16501144 0.087841913 0.86200005 152 78 163 255
0.16665334 0.087841913 0.86200005 152 78 163 255
0.16829525 0.087841913 0.86200005 152 78 163 255
0.16993715 0.087841913 0.86200005 152 78 163 255
0.17157905 0.087841913 0.86200005 152 78 163 255
0.17322095 0.087841913 0.86200005 152 78 163 255
0.17486286 0.087841913 0.86200005 152 78 163 255
0.17650478 0.087841913 0.86200005 152 78 163 255
0.17814668 0.087841913 0.86200005 152 78 163 255
0.17978859 0.087841913 0.86200005 152 78 163 255
0.18143049 0.087841913 0.86200005 152 78 163 255
0.18307239 0.087841913 0.86200005 152 78 163 255
0.1847143 0.087841913 0.86200005 152 78 163 255
0.1863562 0.087841913 0.86200005 152 78 163 255
0.18843429 0.088045716 0.86400002 152 78 163 255
0.15516001 0.089483812 0.86200005 152 78 163 255
0.15680191 0.089483812 0.86200005 152 78 163 255
0.15844382 0.089483812 0.86200005 152 78 163 255
0.16008572 0.089483812 0.86200005 152 78 163 255
0.16172762 0.089483812 0.86200005 152 78 163 255
0.16336954 0.089483812 0.86200005 152 78 163 255
0.16501144 0.089483812 0.86200005 152 78 163 255
0.16665334 0.089483812 0.86200005 152 78 163 255
0.16829525 0.089483812 0.86200005 152 78 163 255
0.16993715 0.089483812 0.86200005 152 78 163 255
0.17157905 0.089483812 0.86200005 152 78 163 255
0.17322095 0.089483812 0.86200005 152 78 163 255
0.17486286 0.089483812 0.86200005 152 78 163 255
0.17650478 0.089483812 0.86200005 152 78 163 255
0.17814668 0.089483812 0.86200005 152 78 163 255
0.17937142 0.089276187 0.86000001 152 78 163 255
0.18100952 0.089276187 0.86000001 152 78 163 255
0.18264762 0.089276187 0.86000001 152 78 163 255
0.18428572 0.089276187 0.86000001 152 78 163 255
0.18592381 0.089276187 0.86000001 152 78 163 255
0.1875619 0.089276187 0.86000001 152 78 163 255
0.15480001 0.090914287 0.86000001 152 78 163 255
0.1564381 0.090914287 0.86000001 152 78 163 255
0.15807618 0.090914287 0.86000001 152 78 163 255
0.15971428 0.090914287 0.86000001 152 78 163 255
0.16135238 0.090914287 0.86000001 152 78 163 255
0.16299048 0.090914287 0.86000001 152 78 163 255
0.16501144 0.091125719 0.86200005 152 78 163 255
0.16665334 0.091125719 0.86200005 152 78 163 255
0.16829525 0.091125719 0.86200005 152 78 163 255
0.16954286 0.090914287 0.86000001 152 78 163 255
0.17118095 0.090914287 0.86000001 152 78 163 255
0.17281905 0.090914287 0.86000001 152 78 163 255
0.17445715 0.090914287 0.86000001 152 78 163 255
0.17609525 0.090914287 0.86000001 152 78 163 255
0.17773335 0.090914287 0.86000001 152 78 163 255
0.17937142 0.090914287 0.86000001 152 78 163 255
0.18100952 0.090914287 0.86000001 152 78 163 255
0.18264762 0.090914287 0.86000001 152 78 163 255
0.18428572 0.090914287 0.86000001 152 78 163 255
0.18592381 0.090914287 0.86000001 152 78 163 255
0.1875619 0.090914287 0.86000001 152 78 163 255
0.15152381 0.092552379 0.86000001 152 78 163 255
0.15316191 0.092552379 0.86000001 152 78 163 255
0.15480001 0.092552379 0.86000001 152 78 163 255
0.1564381 0.092552379 0.86000001 152 78 163 255
0.15807618 0.092552379 0.86000001 152 78 163 255
0.15971428 0.092552379 0.86000001 152 78 163 255
0.16135238 0.092552379 0.86000001 152 78 163 255
0.16299048 0.092552379 0.86000001 152 78 163 255
0.16462857 0.092552379 0.86000001 152 78 163 255
0.16626666 0.092552379 0.86000001 152 78 163 255
0.16790476 0.092552379 0.86000001 152 78 163 255
0.16954286 0.092552379 0.86000001 152 78 163 255
0.17118095 0.092552379 0.86000001 152 78 163 255
0.17281905 0.092552379 0.86000001 152 78 163 255
0.17445715 0.092552379 0.86000001 152 78 163 255
0.17609525 0.092552379 0.86000001 152 78 163 255
0.17773335 0.092552379 0.86000001 152 78 163 255
0.17937142 0.092552379 0.86000001 152 78 163 255
0.18100952 0.092552379 0.86000001 152 78 163 255
0.18264762 0.092552379 0.86000001 152 78 163 255
0.18428572 0.092552379 0.86000001 152 78 163 255
0.18549143 0.092337146 0.85800004 152 78 163 255
0.18712573 0.092337146 0.85800004 152 78 163 255
0.15152381 0.094190478 0.86000001 152 78 163 255
0.15280573 0.093971431 0.85800004 152 78 163 255
0.15444 0.093971431 0.85800004 152 78 163 255
0.15607429 0.093971431 0.85800004 152 78 163 255
0.15770859 0.093971431 0.85800004 152 78 163 255
0.15971428 0.094190478 0.86000001 152 78 163 255
0.16135238 0.094190478 0.86000001 152 78 163 255
0.16299048 0.094190478 0.86000001 152 78 163 255
0.16462857 0.094190478 0.86000001 152 78 163 255
0.16626666 0.094190478 0.86000001 152 78 163 255
0.16790476 0.094190478 0.86000001 152 78 163 255
0.16954286 0.094190478 0.86000001 152 78 163 255
0.17118095 0.094190478 0.86000001 152 78 163 255
0.17281905 0.094190478 0.86000001 152 78 163 255
0.17445715 0.094190478 0.86000001 152 78 163 255
0.17609525 0.094190478 0.86000001 152 78 163 255
0.17773335 0.094190478 0.86000001 152 78 163 255
0.17937142 0.094190478 0.86000001 152 78 163 255
0.18100952 0.094190478 0.86000001 152 78 163 255
0.18264762 0.094190478 0.86000001 152 78 163 255
0.18385714 0.093971431 0.85800004 152 78 163 255
0.18549143 0.093971431 0.85800004 152 78 163 255
0.18712573 0.093971431 0.85800004 152 78 163 255
0.14953715 0.095605716 0.85800004 152 78 163 255
0.15117143 0.095605716 0.85800004 152 78 163 255
0.15280573 0.095605716 0.85800004 152 78 163 255
0.15444 0.095605716 0.85800004 152 78 163 255
0.15607429 0.095605716 0.85800004 152 78 163 255
0.15770859 0.095605716 0.85800004 152 78 163 255
0.15971428 0.09582857 0.86000001 152 78 163 255
0.16135238 0.09582857 0.86000001 152 78 163 255
0.16261142 0.095605716 0.85800004 152 78 163 255
0.16424572 0.095605716 0.85800004 152 78 163 255
0.16588001 0.095605716 0.85800004 152 78 163 255
0.16751429 0.095605716 0.85800004 152 78 163 255
0.16914858 0.095605716 0.85800004 152 78 163 255
0.17078286 0.095605716 0.85800004 152 78 163 255
0.17241715 0.095605716 0.85800004 152 78 163 255
0.17405143 0.095605716 0.85800004 152 78 163 255
0.17568572 0.095605716 0.85800004 152 78 163 255
0.17732 0.095605716 0.85800004 152 78 163 255
0.17895429 0.095605716 0.85800004 152 78 163 255
0.18058857 0.095605716 0.85800004 152 78 163 255
0.18222287 0.095605716 0.85800004 152 78 163 255
0.18342859 0.095382862 0.85600007 152 78 163 255
0.18505906 0.095382862 0.85600007 152 78 163 255
0.18668954 0.095382862 0.85600007 152 78 163 255
0.14988571 0.09746667 0.86000001 152 78 163 255
0.15117143 0.097240001 0.85800004 152 78 163 255
0.15244953 0.097013339 0.85600007 152 78 163 255
0.15408 0.097013339 0.85600007 152 78 163 255
0.15607429 0.097240001 0.85800004 152 78 163 255
0.15770859 0.097240001 0.85800004 152 78 163 255
0.15934287 0.097240001 0.85800004 152 78 163 255
0.16097714 0.097240001 0.85800004 152 78 163 255
0.16261142 0.097240001 0.85800004 152 78 163 255
0.16424572 0.097240001 0.85800004 152 78 163 255
0.16588001 0.097240001 0.85800004 152 78 163 255
0.16751429 0.097240001 0.85800004 152 78 163 255
0.16875429 0.097013339 0.85600007 152 78 163 255
0.17038476 0.097013339 0.85600007 152 78 163 255
0.17201525 0.097013339 0.85600007 152 78 163 255
0.17405143 0.097240001 0.85800004 152 78 163 255
0.17568572 0.097240001 0.85800004 152 78 163 255
0.17732 0.097240001 0.85800004 152 78 163 255
0.17895429 0.097240001 0.85800004 152 78 163 255
0.18058857 0.097240001 0.85800004 152 78 163 255
0.18222287 0.097240001 0.85800004 152 78 163 255
0.18342859 0.097013339 0.85600007 152 78 163 255
0.18505906 0.097013339 0.85600007 152 78 163 255
0.18668954 0.097013339 0.85600007 152 78 163 255
0.1466962 0.098067619 0.85100001 152 78 163 255
0.14831714 0.098067619 0.85100001 152 78 163 255
0.15081906 0.098643817 0.85600007 152 78 163 255
0.15209335 0.098413341 0.85400003 152 78 163 255
0.15372001 0.098413341 0.85400003 152 78 163 255
0.15571049 0.098643817 0.85600007 152 78 163 255
0.15734096 0.098643817 0.85600007 152 78 163 255
0.15934287 0.098874293 0.85800004 152 78 163 255
0.16097714 0.098874293 0.85800004 152 78 163 255
0.16223238 0.098643817 0.85600007 152 78 163 255
0.16386287 0.098643817 0.85600007 152 78 163 255
0.16588001 0.098874293 0.85800004 152 78 163 255
0.16712382 0.098643817 0.85600007 152 78 163 255
0.16875429 0.098643817 0.85600007 152 78 163 255
0.17038476 0.098643817 0.85600007 152 78 163 255
0.17201525 0.098643817 0.85600007 152 78 163 255
0.17364573 0.098643817 0.85600007 152 78 163 255
0.17527619 0.098643817 0.85600007 152 78 163 255
0.17690668 0.098643817 0.85600007 152 78 163 255
0.17895429 0.098874293 0.85800004 152 78 163 255
0.18058857 0.098874293 0.85800004 152 78 163 255
0.18222287 0.098874293 0.85800004 152 78 163 255
0.18385714 0.098874293 0.85800004 152 78 163 255
0.18549143 0.098874293 0.85800004 152 78 163 255
0.1875619 0.099104762 0.86000001 152 78 163 255
0.1466962 0.099688575 0.85100001 152 78 163 255
0.14831714 0.099688575 0.85100001 152 78 163 255
0.15046667 0.10004 0.85400003 152 78 163 255
0.15209335 0.10004 0.85400003 152 78 163 255
0.15372001 0.10004 0.85400003 152 78 163 255
0.15534668 0.10004 0.85400003 152 78 163 255
0.15734096 0.10027429 0.85600007 152 78 163 255
0.15897144 0.10027429 0.85600007 152 78 163 255
0.16060191 0.10027429 0.85600007 152 78 163 255
0.16223238 0.10027429 0.85600007 152 78 163 255
0.16386287 0.10027429 0.85600007 152 78 163 255
0.16549335 0.10027429 0.85600007 152 78 163 255
0.16712382 0.10027429 0.85600007 152 78 163 255
0.16835999 0.10004 0.85400003 152 78 163 255
0.16998667 0.10004 0.85400003 152 78 163 255
0.17161334 0.10004 0.85400003 152 78 163 255
0.17364573 0.10027429 0.85600007 152 78 163 255
0.17527619 0.10027429 0.85600007 152 78 163 255
0.17690668 0.10027429 0.85600007 152 78 163 255
0.17895429 0.10050857 0.85800004 152 78 163 255
0.18058857 0.10050857 0.85800004 152 78 163 255
0.18222287 0.10050857 0.85800004 152 78 163 255
0.18342859 0.10027429 0.85600007 152 78 163 255
0.18505906 0.10027429 0.85600007 152 78 163 255
0.18712573 0.10050857 0.85800004 152 78 163 255
0.14721334 0.10166667 0.85400003 152 78 163 255
0.14884001 0.10166667 0.85400003 152 78 163 255
0.15046667 0.10166667 0.85400003 152 78 163 255
0.15209335 0.10166667 0.85400003 152 78 163 255
0.15372001 0.10166667 0.85400003 152 78 163 255
0.15534668 0.10166667 0.85400003 152 78 163 255
0.15697333 0.10166667 0.85400003 152 78 163 255
0.1586 0.10166667 0.85400003 152 78 163 255
0.16022667 0.10166667 0.85400003 152 78 163 255
0.16185333 0.10166667 0.85400003 152 78 163 255
0.16348 0.10166667 0.85400003 152 78 163 255
0.16510667 0.10166667 0.85400003 152 78 163 255
0.16673334 0.10166667 0.85400003 152 78 163 255
0.16835999 0.10166667 0.85400003 152 78 163 255
0.16998667 0.10166667 0.85400003 152 78 163 255
0.17161334 0.10166667 0.85400003 152 78 163 255
0.17324001 0.10166667 0.85400003 152 78 163 255
0.17486666 0.10166667 0.85400003 152 78 163 255
0.17649335 0.10166667 0.85400003 152 78 163 255
0.17853716 0.10190476 0.85600007 152 78 163 255
0.18016763 0.10190476 0.85600007 152 78 163 255
0.18179812 0.10190476 0.85600007 152 78 163 255
0.18342859 0.10190476 0.85600007 152 78 163 255
0.18505906 0.10190476 0.85600007 152 78 163 255
0.18712573 0.10214286 0.85800004 152 78 163 255
0.14755809 0.10353524 0.85600007 152 78 163 255
0.14918858 0.10353524 0.85600007 152 78 163 255
0.15046667 0.10329334 0.85400003 152 78 163 255
0.15209335 0.10329334 0.85400003 152 78 163 255
0.15372001 0.10329334 0.85400003 152 78 163 255
0.15534668 0.10329334 0.85400003 152 78 163 255
0.15697333 0.10329334 0.85400003 152 78 163 255
0.1586 0.10329334 0.85400003 152 78 163 255
0.16022667 0.10329334 0.85400003 152 78 163 255
0.16185333 0.10329334 0.85400003 152 78 163 255
0.16348 0.10329334 0.85400003 152 78 163 255
0.16510667 0.10329334 0.85400003 152 78 163 255
0.16673334 0.10329334 0.85400003 152 78 163 255
0.16835999 0.10329334 0.85400003 152 78 163 255
0.16998667 0.10329334 0.85400003 152 78 163 255
0.17161334 0.10329334 0.85400003 152 78 163 255
0.17324001 0.10329334 0.85400003 152 78 163 255
0.17486666 0.10329334 0.85400003 152 78 163 255
0.17649335 0.10329334 0.85400003 152 78 163 255
0.17853716 0.10353524 0.85600007 152 78 163 255
0.18016763 0.10353524 0.85600007 152 78 163 255
0.18179812 0.10353524 0.85600007 152 78 163 255
0.18342859 0.10353524 0.85600007 152 78 163 255
0.18505906 0.10353524 0.85600007 152 78 163 255
0.18668954 0.10353524 0.85600007 152 78 163 255
0.19008 0.10450286 0.86400002 152 78 163 255
0.14721334 0.10492 0.85400003 152 78 163 255
0.14884001 0.10492 0.85400003 152 78 163 255
0.15046667 0.10492 0.85400003 152 78 163 255
0.15155905 0.10455143 0.85100001 152 78 163 255
0.15318 0.10455143 0.85100001 152 78 163 255
0.15480095 0.10455143 0.85100001 152 78 163 255
0.1564219 0.10455143 0.85100001 152 78 163 255
0.15804286 0.10455143 0.85100001 152 78 163 255
0.15966381 0.10455143 0.85100001 152 78 163 255
0.16128476 0.10455143 0.85100001 152 78 163 255
0.16348 0.10492 0.85400003 152 78 163 255
0.16510667 0.10492 0.85400003 152 78 163 255
0.16673334 0.10492 0.85400003 152 78 163 255
0.16835999 0.10492 0.85400003 152 78 163 255
0.16998667 0.10492 0.85400003 152 78 163 255
0.17161334 0.10492 0.85400003 152 78 163 255
0.17324001 0.10492 0.85400003 152 78 163 255
0.17486666 0.10492 0.85400003 152 78 163 255
0.17649335 0.10492 0.85400003 152 78 163 255
0.17812 0.10492 0.85400003 152 78 163 255
0.17974667 0.10492 0.85400003 152 78 163 255
0.18179812 0.10516573 0.85600007 152 78 163 255
0.18342859 0.10516573 0.85600007 152 78 163 255
0.18505906 0.10516573 0.85600007 152 78 163 255
0.18668954 0.10516573 0.85600007 152 78 163 255
0.14721334 0.10654666 0.85400003 152 78 163 255
0.14884001 0.10654666 0.85400003 152 78 163 255
0.15046667 0.10654666 0.85400003 152 78 163 255
0.15155905 0.10617238 0.85100001 152 78 163 255
0.15318 0.10617238 0.85100001 152 78 163 255
0.15480095 0.10617238 0.85100001 152 78 163 255
0.1564219 0.10617238 0.85100001 152 78 163 255
0.15804286 0.10617238 0.85100001 152 78 163 255
0.15966381 0.10617238 0.85100001 152 78 163 255
0.16128476 0.10617238 0.85100001 152 78 163 255
0.16290571 0.10617238 0.85100001 152 78 163 255
0.16452667 0.10617238 0.85100001 152 78 163 255
0.16614762 0.10617238 0.85100001 152 78 163 255
0.16776857 0.10617238 0.85100001 152 78 163 255
0.16938953 0.10617238 0.85100001 152 78 163 255
0.17101048 0.10617238 0.85100001 152 78 163 255
0.17263143 0.10617238 0.85100001 152 78 163 255
0.17425238 0.10617238 0.85100001 152 78 163 255
0.17587334 0.10617238 0.85100001 152 78 163 255
0.17812 0.10654666 0.85400003 152 78 163 255
0.17974667 0.10654666 0.85400003 152 78 163 255
0.18137333 0.10654666 0.85400003 152 78 163 255
0.18300001 0.10654666 0.85400003 152 78 163 255
0.18505906 0.1067962 0.85600007 152 78 163 255
0.18712573 0.10704572 0.85800004 152 78 163 255
0.14859238 0.10918667 0.86200005 152 78 163 255
0.14884001 0.10817333 0.85400003 152 78 163 255
0.15046667 0.10817333 0.85400003 152 78 163 255
0.15155905 0.10779333 0.85100001 152 78 163 255
0.15318 0.10779333 0.85100001 152 78 163 255
0.15480095 0.10779333 0.85100001 152 78 163 255
0.1564219 0.10779333 0.85100001 152 78 163 255
0.15804286 0.10779333 0.85100001 152 78 163 255
0.15966381 0.10779333 0.85100001 152 78 163 255
0.16128476 0.10779333 0.85100001 152 78 163 255
0.16290571 0.10779333 0.85100001 152 78 163 255
0.16452667 0.10779333 0.85100001 152 78 163 255
0.16614762 0.10779333 0.85100001 152 78 163 255
0.16776857 0.10779333 0.85100001 152 78 163 255
0.16938953 0.10779333 0.85100001 152 78 163 255
0.17101048 0.10779333 0.85100001 152 78 163 255
0.17263143 0.10779333 0.85100001 152 78 163 255
0.17425238 0.10779333 0.85100001 152 78 163 255
0.17587334 0.10779333 0.85100001 152 78 163 255
0.17749429 0.10779333 0.85100001 152 78 163 255
0.17911524 0.10779333 0.85100001 152 78 163 255
0.18073618 0.10779333 0.85100001 152 78 163 255
0.18300001 0.10817333 0.85400003 152 78 163 255
0.18462667 0.10817333 0.85400003 152 78 163 255
0.18668954 0.10842668 0.85600007 152 78 163 255
0.14918858 0.11005715 0.85600007 152 78 163 255
0.15046667 0.1098 0.85400003 152 78 163 255
0.15155905 0.10941429 0.85100001 152 78 163 255
0.15318 0.10941429 0.85100001 152 78 163 255
0.15480095 0.10941429 0.85100001 152 78 163 255
0.1564219 0.10941429 0.85100001 152 78 163 255
0.15804286 0.10941429 0.85100001 152 78 163 255
0.15966381 0.10941429 0.85100001 152 78 163 255
0.16128476 0.10941429 0.85100001 152 78 163 255
0.16290571 0.10941429 0.85100001 152 78 163 255
0.16452667 0.10941429 0.85100001 152 78 163 255
0.16614762 0.10941429 0.85100001 152 78 163 255
0.16776857 0.10941429 0.85100001 152 78 163 255
0.16899143 0.10915715 0.84900004 152 78 163 255
0.17060858 0.10915715 0.84900004 152 78 163 255
0.17263143 0.10941429 0.85100001 152 78 163 255
0.17425238 0.10941429 0.85100001 152 78 163 255
0.17587334 0.10941429 0.85100001 152 78 163 255
0.17749429 0.10941429 0.85100001 152 78 163 255
0.17911524 0.10941429 0.85100001 152 78 163 255
0.18073618 0.10941429 0.85100001 152 78 163 255
0.18235715 0.10941429 0.85100001 152 78 163 255
0.18462667 0.1098 0.85400003 152 78 163 255
0.18668954 0.11005715 0.85600007 152 78 163 255
0.14918858 0.11168763 0.85600007 152 78 163 255
0.15046667 0.11142667 0.85400003 152 78 163 255
0.15155905 0.11103524 0.85100001 152 78 163 255
0.15318 0.11103524 0.85100001 152 78 163 255
0.15480095 0.11103524 0.85100001 152 78 163 255
0.1564219 0.11103524 0.85100001 152 78 163 255
0.15804286 0.11103524 0.85100001 152 78 163 255
0.15966381 0.11103524 0.85100001 152 78 163 255
0.16128476 0.11103524 0.85100001 152 78 163 255
0.16290571 0.11103524 0.85100001 152 78 163 255
0.16452667 0.11103524 0.85100001 152 78 163 255
0.16614762 0.11103524 0.85100001 152 78 163 255
0.1673743 0.11077429 0.84900004 152 78 163 255
0.16899143 0.11077429 0.84900004 152 78 163 255
0.17060858 0.11077429 0.84900004 152 78 163 255
0.17222571 0.11077429 0.84900004 152 78 163 255
0.17384286 0.11077429 0.84900004 152 78 163 255
0.17546 0.11077429 0.84900004 152 78 163 255
0.17707716 0.11077429 0.84900004 152 78 163 255
0.17869429 0.11077429 0.84900004 152 78 163 255
0.18031144 0.11077429 0.84900004 152 78 163 255
0.18192858 0.11077429 0.84900004 152 78 163 255
0.1839781 0.11103524 0.85100001 152 78 163 255
0.18625334 0.11142667 0.85400003 152 78 163 255
0.14918858 0.1133181 0.85600007 152 78 163 255
0.15046667 0.11305334 0.85400003 152 78 163 255
0.15155905 0.11265619 0.85100001 152 78 163 255
0.15318 0.11265619 0.85100001 152 78 163 255
0.15480095 0.11265619 0.85100001 152 78 163 255
0.1564219 0.11265619 0.85100001 152 78 163 255
0.15767144 0.11239143 0.84900004 152 78 163 255
0.15928857 0.11239143 0.84900004 152 78 163 255
0.16090572 0.11239143 0.84900004 152 78 163 255
0.16252285 0.11239143 0.84900004 152 78 163 255
0.16414 0.11239143 0.84900004 152 78 163 255
0.16575715 0.11239143 0.84900004 152 78 163 255
0.1673743 0.11239143 0.84900004 152 78 163 255
0.16899143 0.11239143 0.84900004 152 78 163 255
0.17060858 0.11239143 0.84900004 152 78 163 255
0.17222571 0.11239143 0.84900004 152 78 163 255
0.17384286 0.11239143 0.84900004 152 78 163 255
0.17546 0.11239143 0.84900004 152 78 163 255
0.17707716 0.11239143 0.84900004 152 78 163 255
0.17869429 0.11239143 0.84900004 152 78 163 255
0.18031144 0.11239143 0.84900004 152 78 163 255
0.18192858 0.11239143 0.84900004 152 78 163 255
0.18354572 0.11239143 0.84900004 152 78 163 255
0.18559904 0.11265619 0.85100001 152 78 163 255
0.14918858 0.11494858 0.85600007 152 78 163 255
0.14993809 0.11427715 0.85100001 152 78 163 255
0.15155905 0.11427715 0.85100001 152 78 163 255
0.15282001 0.11400858 0.84900004 152 78 163 255
0.15443715 0.11400858 0.84900004 152 78 163 255
0.15605429 0.11400858 0.84900004 152 78 163 255
0.15767144 0.11400858 0.84900004 152 78 163 255
0.15928857 0.11400858 0.84900004 152 78 163 255
0.16090572 0.11400858 0.84900004 152 78 163 255
0.16252285 0.11400858 0.84900004 152 78 163 255
0.16414 0.11400858 0.84900004 152 78 163 255
0.16575715 0.11400858 0.84900004 152 78 163 255
0.16698001 0.11374 0.84700006 152 78 163 255
0.16859335 0.11374 0.84700006 152 78 163 255
0.17020668 0.11374 0.84700006 152 78 163 255
0.17182001 0.11374 0.84700006 152 78 163 255
0.17343335 0.11374 0.84700006 152 78 163 255
0.17504668 0.11374 0.84700006 152 78 163 255
0.17666002 0.11374 0.84700006 152 78 163 255
0.17827335 0.11374 0.84700006 152 78 163 255
0.17988667 0.11374 0.84700006 152 78 163 255
0.1815 0.11374 0.84700006 152 78 163 255
0.18311334 0.11374 0.84700006 152 78 163 255
0.18516286 0.11400858 0.84900004 152 78 163 255
0.14884001 0.11630667 0.85400003 152 78 163 255
0.14993809 0.1158981 0.85100001 152 78 163 255
0.15155905 0.1158981 0.85100001 152 78 163 255
0.15282001 0.11562572 0.84900004 152 78 163 255
0.15443715 0.11562572 0.84900004 152 78 163 255
0.15605429 0.11562572 0.84900004 152 78 163 255
0.15730001 0.11535334 0.84700006 152 78 163 255
0.15891334 0.11535334 0.84700006 152 78 163 255
0.16090572 0.11562572 0.84900004 152 78 163 255
0.16252285 0.11562572 0.84900004 152 78 163 255
0.16414 0.11562572 0.84900004 152 78 163 255
0.16536668 0.11535334 0.84700006 152 78 163 255
0.16698001 0.11535334 0.84700006 152 78 163 255
0.16859335 0.11535334 0.84700006 152 78 163 255
0.17020668 0.11535334 0.84700006 152 78 163 255
0.17182001 0.11535334 0.84700006 152 78 163 255
0.17343335 0.11535334 0.84700006 152 78 163 255
0.17463334 0.11508096 0.84500003 152 78 163 255
0.17624286 0.11508096 0.84500003 152 78 163 255
0.17785239 0.11508096 0.84500003 152 78 163 255
0.17988667 0.11535334 0.84700006 152 78 163 255
0.1815 0.11535334 0.84700006 152 78 163 255
