ply
format ascii 1.0
comment PCL generated
element vertex 127
property float x
property float y
property float z
property uchar red
property uchar green
property uchar blue
property uchar alpha
element camera 1
property float view_px
property float view_py
property float view_pz
property float x_axisx
property float x_axisy
property float x_axisz
property float y_axisx
property float y_axisy
property float y_axisz
property float z_axisx
property float z_axisy
property float z_axisz
property float focal
property float scalex
property float scaley
property float centerx
property float centery
property int viewportx
property int viewporty
property float k1
property float k2
end_header
0.13438286 -0.27910286 1.2060001 0 149 125 255
0.13668001 -0.27910286 1.2060001 0 149 125 255
0.13851619 -0.27817714 1.202 0 149 125 255
0.14080572 -0.27817714 1.202 0 149 125 255
0.13164762 -0.27588761 1.202 0 149 125 255
0.13438286 -0.27680573 1.2060001 0 149 125 255
0.13668001 -0.27680573 1.2060001 0 149 125 255
0.13851619 -0.27588761 1.202 0 149 125 255
0.14080572 -0.27588761 1.202 0 149 125 255
0.13164762 -0.2735981 1.202 0 149 125 255
0.13438286 -0.27450857 1.2060001 0 149 125 255
0.13668001 -0.27450857 1.2060001 0 149 125 255
0.13851619 -0.2735981 1.202 0 149 125 255
0.14080572 -0.2735981 1.202 0 149 125 255
0.12560952 -0.27311429 1.21 0 149 125 255
0.12706856 -0.27130857 1.202 0 149 125 255
0.1293581 -0.27130857 1.202 0 149 125 255
0.13252382 -0.27311429 1.21 0 149 125 255
0.13527429 -0.27401716 1.2140001 0 149 125 255
0.13713333 -0.27311429 1.21 0 149 125 255
0.13943809 -0.27311429 1.21 0 149 125 255
0.12560952 -0.27080953 1.21 0 149 125 255
0.12791428 -0.27080953 1.21 0 149 125 255
0.13021906 -0.27080953 1.21 0 149 125 255
0.13296191 -0.27170479 1.2140001 0 149 125 255
0.13583145 -0.27282384 1.2190001 0 149 125 255
0.13758668 -0.27170479 1.2140001 0 149 125 255
0.13989906 -0.27170479 1.2140001 0 149 125 255
0.12554666 -0.27338669 1.2320001 0 149 125 255
0.12602477 -0.2693924 1.2140001 0 149 125 255
0.12833716 -0.2693924 1.2140001 0 149 125 255
0.13064952 -0.2693924 1.2140001 0 149 125 255
0.13350953 -0.27050194 1.2190001 0 149 125 255
0.13583145 -0.27050194 1.2190001 0 149 125 255
0.13815333 -0.27050194 1.2190001 0 149 125 255
0.14047524 -0.27050194 1.2190001 0 149 125 255
0.12554666 -0.27104002 1.2320001 0 149 125 255
0.12737429 -0.26994005 1.2270001 0 149 125 255
0.12928857 -0.26905999 1.223 0 149 125 255
0.1316181 -0.26905999 1.223 0 149 125 255
0.13394763 -0.26905999 1.223 0 149 125 255
0.13627714 -0.26905999 1.223 0 149 125 255
0.13815333 -0.26818001 1.2190001 0 149 125 255
0.14047524 -0.26818001 1.2190001 0 149 125 255
0.1259 -0.27458191 1.2590001 0 149 125 255
0.1259543 -0.26956573 1.2360001 0 149 125 255
0.12789334 -0.26869336 1.2320001 0 149 125 255
0.12971143 -0.26760289 1.2270001 0 149 125 255
0.13204859 -0.26760289 1.2270001 0 149 125 255
0.13438572 -0.26760289 1.2270001 0 149 125 255
0.13672288 -0.26760289 1.2270001 0 149 125 255
0.13815333 -0.26585811 1.2190001 0 149 125 255
0.14047524 -0.26585811 1.2190001 0 149 125 255
0.12438476 -0.27412951 1.268 0 149 125 255
0.1259 -0.27218381 1.2590001 0 149 125 255
0.1259543 -0.26721144 1.2360001 0 149 125 255
0.12830856 -0.26721144 1.2360001 0 149 125 255
0.13024001 -0.26634669 1.2320001 0 149 125 255
0.13258669 -0.26634669 1.2320001 0 149 125 255
0.13493334 -0.26634669 1.2320001 0 149 125 255
0.13728002 -0.26634669 1.2320001 0 149 125 255
0.13815333 -0.26353619 1.2190001 0 149 125 255
0.14047524 -0.26353619 1.2190001 0 149 125 255
0.12196951 -0.27171427 1.268 0 149 125 255
0.12399238 -0.27085716 1.2640001 0 149 125 255
0.1259 -0.26978573 1.2590001 0 149 125 255
0.12646382 -0.26592857 1.2410001 0 149 125 255
0.12830856 -0.26485714 1.2360001 0 149 125 255
0.13066287 -0.26485714 1.2360001 0 149 125 255
0.13301714 -0.26485714 1.2360001 0 149 125 255
0.13537145 -0.26485714 1.2360001 0 149 125 255
0.13772571 -0.26485714 1.2360001 0 149 125 255
0.14008002 -0.26485714 1.2360001 0 149 125 255
0.14243428 -0.26485714 1.2360001 0 149 125 255
0.12399238 -0.26844952 1.2640001 0 149 125 255
0.1259 -0.26738763 1.2590001 0 149 125 255
0.1278905 -0.26653811 1.2550001 0 149 125 255
0.12924285 -0.26441428 1.245 0 149 125 255
0.1316143 -0.26441428 1.245 0 149 125 255
0.13355523 -0.26356477 1.2410001 0 149 125 255
0.13537145 -0.26250288 1.2360001 0 149 125 255
0.13772571 -0.26250288 1.2360001 0 149 125 255
0.14008002 -0.26250288 1.2360001 0 149 125 255
0.12399238 -0.26604193 1.2640001 0 149 125 255
0.1259 -0.26498953 1.2590001 0 149 125 255
0.1278905 -0.26414764 1.2550001 0 149 125 255
0.1297619 -0.26309523 1.25 0 149 125 255
0.1316143 -0.26204285 1.245 0 149 125 255
0.13398571 -0.26204285 1.245 0 149 125 255
0.13635714 -0.26204285 1.245 0 149 125 255
0.13872856 -0.26204285 1.245 0 149 125 255
0.14166667 -0.26309523 1.25 0 149 125 255
0.12158477 -0.26363429 1.2640001 0 149 125 255
0.12399238 -0.26363429 1.2640001 0 149 125 255
0.1259 -0.26259142 1.2590001 0 149 125 255
0.1278905 -0.26175717 1.2550001 0 149 125 255
0.1297619 -0.26071429 1.25 0 149 125 255
0.13214286 -0.26071429 1.25 0 149 125 255
0.13452381 -0.26071429 1.25 0 149 125 255
0.13690476 -0.26071429 1.25 0 149 125 255
0.13984287 -0.26175717 1.2550001 0 149 125 255
0.14268668 -0.26259142 1.2590001 0 149 125 255
0.12158477 -0.26122668 1.2640001 0 149 125 255
0.12399238 -0.26122668 1.2640001 0 149 125 255
0.1259 -0.26019335 1.2590001 0 149 125 255
0.1278905 -0.25936669 1.2550001 0 149 125 255
0.13028096 -0.25936669 1.2550001 0 149 125 255
0.13214286 -0.25833333 1.25 0 149 125 255
0.13452381 -0.25833333 1.25 0 149 125 255
0.13745239 -0.25936669 1.2550001 0 149 125 255
0.14028858 -0.26019335 1.2590001 0 149 125 255
0.14325333 -0.26122668 1.2640001 0 149 125 255
0.12639999 -0.25881904 1.2640001 0 149 125 255
0.1278905 -0.25697619 1.2550001 0 149 125 255
0.13028096 -0.25697619 1.2550001 0 149 125 255
0.13267143 -0.25697619 1.2550001 0 149 125 255
0.13506192 -0.25697619 1.2550001 0 149 125 255
0.13789047 -0.25779527 1.2590001 0 149 125 255
0.14084572 -0.25881904 1.2640001 0 149 125 255
0.12880762 -0.25641146 1.2640001 0 149 125 255
0.13069619 -0.25539717 1.2590001 0 149 125 255
0.1330943 -0.25539717 1.2590001 0 149 125 255
0.1354924 -0.25539717 1.2590001 0 149 125 255
0.12880762 -0.25400382 1.2640001 0 149 125 255
0.13121524 -0.25400382 1.2640001 0 149 125 255
0.13362285 -0.25400382 1.2640001 0 149 125 255
0.13603048 -0.25400382 1.2640001 0 149 125 255
0 0 0 1 0 0 0 1 0 0 0 1 0 0 0 0 0 127 1 0 0
