ply
format ascii 1.0
comment PCL generated
element vertex 756
property float x
property float y
property float z
element camera 1
property float view_px
property float view_py
property float view_pz
property float x_axisx
property float x_axisy
property float x_axisz
property float y_axisx
property float y_axisy
property float y_axisz
property float z_axisx
property float z_axisy
property float z_axisz
property float focal
property float scalex
property float scaley
property float centerx
property float centery
property int viewportx
property int viewporty
property float k1
property float k2
end_header
0.22261143 -0.10897715 0.97800004
0.2244743 -0.10897715 0.97800004
0.23006286 -0.10897715 0.97800004
0.21516001 -0.10711429 0.97800004
0.21702287 -0.10711429 0.97800004
0.21888573 -0.10711429 0.97800004
0.22074857 -0.10711429 0.97800004
0.22261143 -0.10711429 0.97800004
0.2244743 -0.10711429 0.97800004
0.22633715 -0.10711429 0.97800004
0.22820002 -0.10711429 0.97800004
0.23006286 -0.10711429 0.97800004
0.23192573 -0.10711429 0.97800004
0.23378858 -0.10711429 0.97800004
0.23565143 -0.10711429 0.97800004
0.21143429 -0.10525143 0.97800004
0.21329714 -0.10525143 0.97800004
0.21516001 -0.10525143 0.97800004
0.21702287 -0.10525143 0.97800004
0.21888573 -0.10525143 0.97800004
0.22074857 -0.10525143 0.97800004
0.22261143 -0.10525143 0.97800004
0.2244743 -0.10525143 0.97800004
0.22633715 -0.10525143 0.97800004
0.22820002 -0.10525143 0.97800004
0.23006286 -0.10525143 0.97800004
0.23192573 -0.10525143 0.97800004
0.23378858 -0.10525143 0.97800004
0.23565143 -0.10525143 0.97800004
0.2375143 -0.10525143 0.97800004
0.23937714 -0.10525143 0.97800004
0.2102143 -0.10370572 0.98100007
0.21143429 -0.10338858 0.97800004
0.21329714 -0.10338858 0.97800004
0.21516001 -0.10338858 0.97800004
0.21702287 -0.10338858 0.97800004
0.21888573 -0.10338858 0.97800004
0.22142573 -0.10370572 0.98100007
0.2232943 -0.10370572 0.98100007
0.2244743 -0.10338858 0.97800004
0.22633715 -0.10338858 0.97800004
0.22820002 -0.10338858 0.97800004
0.23006286 -0.10338858 0.97800004
0.23192573 -0.10338858 0.97800004
0.23378858 -0.10338858 0.97800004
0.23565143 -0.10338858 0.97800004
0.2375143 -0.10338858 0.97800004
0.23937714 -0.10338858 0.97800004
0.24198 -0.10370572 0.98100007
0.24310286 -0.10338858 0.97800004
0.24496573 -0.10338858 0.97800004
0.20834573 -0.10183715 0.98100007
0.2102143 -0.10183715 0.98100007
0.21208286 -0.10183715 0.98100007
0.21329714 -0.10152572 0.97800004
0.21516001 -0.10152572 0.97800004
0.21768858 -0.10183715 0.98100007
0.21955715 -0.10183715 0.98100007
0.22142573 -0.10183715 0.98100007
0.2232943 -0.10183715 0.98100007
0.2244743 -0.10152572 0.97800004
0.22633715 -0.10152572 0.97800004
0.22820002 -0.10152572 0.97800004
0.23006286 -0.10152572 0.97800004
0.23192573 -0.10152572 0.97800004
0.23450573 -0.10183715 0.98100007
0.23565143 -0.10152572 0.97800004
0.2375143 -0.10152572 0.97800004
0.24011144 -0.10183715 0.98100007
0.24198 -0.10183715 0.98100007
0.24310286 -0.10152572 0.97800004
0.2442143 -0.10121429 0.97500002
0.24480954 -0.10069524 0.97000003
0.24665716 -0.10069524 0.97000003
0.24850476 -0.10069524 0.97000003
0.20770858 -0.099662863 0.97800004
0.20957144 -0.099662863 0.97800004
0.21208286 -0.099968582 0.98100007
0.21395144 -0.099968582 0.98100007
0.21582 -0.099968582 0.98100007
0.21768858 -0.099968582 0.98100007
0.21955715 -0.099968582 0.98100007
0.22142573 -0.099968582 0.98100007
0.2232943 -0.099968582 0.98100007
0.22516288 -0.099968582 0.98100007
0.22703144 -0.099968582 0.98100007
0.22890002 -0.099968582 0.98100007
0.23076859 -0.099968582 0.98100007
0.23263715 -0.099968582 0.98100007
0.23450573 -0.099968582 0.98100007
0.2363743 -0.099968582 0.98100007
0.23824286 -0.099968582 0.98100007
0.24011144 -0.099968582 0.98100007
0.24198 -0.099968582 0.98100007
0.24310286 -0.099662863 0.97800004
0.2442143 -0.099357143 0.97500002
0.24480954 -0.09884762 0.97000003
0.24665716 -0.09884762 0.97000003
0.24850476 -0.09884762 0.97000003
0.2495781 -0.098541915 0.96700007
0.25142002 -0.098541915 0.96700007
0.20647715 -0.098100007 0.98100007
0.20770858 -0.097800002 0.97800004
0.20957144 -0.097800002 0.97800004
0.21208286 -0.098100007 0.98100007
0.21395144 -0.098100007 0.98100007
0.21582 -0.098100007 0.98100007
0.21768858 -0.098100007 0.98100007
0.21955715 -0.098100007 0.98100007
0.22142573 -0.098100007 0.98100007
0.2232943 -0.098100007 0.98100007
0.22516288 -0.098100007 0.98100007
0.22703144 -0.098100007 0.98100007
0.22890002 -0.098100007 0.98100007
0.23076859 -0.098100007 0.98100007
0.23263715 -0.098100007 0.98100007
0.23450573 -0.098100007 0.98100007
0.2363743 -0.098100007 0.98100007
0.23824286 -0.098100007 0.98100007
0.24011144 -0.098100007 0.98100007
0.24198 -0.098100007 0.98100007
0.24310286 -0.097800002 0.97800004
0.2442143 -0.097499996 0.97500002
0.24556667 -0.097300008 0.97300005
0.24665716 -0.097000003 0.97000003
0.24850476 -0.097000003 0.97000003
0.2495781 -0.096700005 0.96700007
0.25142002 -0.096700005 0.96700007
0.2540476 -0.097000003 0.97000003
0.20108667 -0.095446669 0.97300005
0.20460859 -0.096231431 0.98100007
0.20647715 -0.096231431 0.98100007
0.20834573 -0.096231431 0.98100007
0.2102143 -0.096231431 0.98100007
0.21208286 -0.096231431 0.98100007
0.21395144 -0.096231431 0.98100007
0.21582 -0.096231431 0.98100007
0.21768858 -0.096231431 0.98100007
0.21955715 -0.096231431 0.98100007
0.22142573 -0.096231431 0.98100007
0.2232943 -0.096231431 0.98100007
0.22516288 -0.096231431 0.98100007
0.22703144 -0.096231431 0.98100007
0.22890002 -0.096231431 0.98100007
0.23076859 -0.096231431 0.98100007
0.23263715 -0.096231431 0.98100007
0.23450573 -0.096231431 0.98100007
0.2363743 -0.096231431 0.98100007
0.23824286 -0.096231431 0.98100007
0.24011144 -0.096231431 0.98100007
0.24198 -0.096231431 0.98100007
0.24310286 -0.09593714 0.97800004
0.2442143 -0.095642857 0.97500002
0.24556667 -0.095446669 0.97300005
0.24665716 -0.095152386 0.97000003
0.24850476 -0.095152386 0.97000003
0.25035238 -0.095152386 0.97000003
0.25220001 -0.095152386 0.97000003
0.2540476 -0.095152386 0.97000003
0.25589523 -0.095152386 0.97000003
0.19923334 -0.093593337 0.97300005
0.20108667 -0.093593337 0.97300005
0.20398286 -0.094074294 0.97800004
0.20584573 -0.094074294 0.97800004
0.20834573 -0.094362862 0.98100007
0.2102143 -0.094362862 0.98100007
0.21208286 -0.094362862 0.98100007
0.21460572 -0.094651431 0.98400003
0.21648 -0.094651431 0.98400003
0.21835428 -0.094651431 0.98400003
0.22022857 -0.094651431 0.98400003
0.22210287 -0.094651431 0.98400003
0.22397715 -0.094651431 0.98400003
0.22585143 -0.094651431 0.98400003
0.22703144 -0.094362862 0.98100007
0.22890002 -0.094362862 0.98100007
0.23076859 -0.094362862 0.98100007
0.23263715 -0.094362862 0.98100007
0.23450573 -0.094362862 0.98100007
0.2363743 -0.094362862 0.98100007
0.23897144 -0.094651431 0.98400003
0.24011144 -0.094362862 0.98100007
0.24198 -0.094362862 0.98100007
0.24310286 -0.094074294 0.97800004
0.24496573 -0.094074294 0.97800004
0.24556667 -0.093593337 0.97300005
0.24742001 -0.093593337 0.97300005
0.24850476 -0.093304761 0.97000003
0.25035238 -0.093304761 0.97000003
0.25220001 -0.093304761 0.97000003
0.2540476 -0.093304761 0.97000003
0.25510383 -0.0930162 0.96700007
0.25694573 -0.0930162 0.96700007
0.19738001 -0.091740005 0.97300005
0.19923334 -0.091740005 0.97300005
0.20108667 -0.091740005 0.97300005
0.20335715 -0.091928571 0.97500002
0.20584573 -0.092211433 0.97800004
0.20834573 -0.092494287 0.98100007
0.2102143 -0.092494287 0.98100007
0.21208286 -0.092494287 0.98100007
0.21460572 -0.09277714 0.98400003
0.21714 -0.093060002 0.98700005
0.21902001 -0.093060002 0.98700005
0.2209 -0.093060002 0.98700005
0.22278 -0.093060002 0.98700005
0.22397715 -0.09277714 0.98400003
0.22585143 -0.09277714 0.98400003
0.22772571 -0.09277714 0.98400003
0.2296 -0.09277714 0.98400003
0.23147428 -0.09277714 0.98400003
0.23263715 -0.092494287 0.98100007
0.23450573 -0.092494287 0.98100007
0.23709714 -0.09277714 0.98400003
0.23897144 -0.09277714 0.98400003
0.24011144 -0.092494287 0.98100007
0.24198 -0.092494287 0.98100007
0.24310286 -0.092211433 0.97800004
0.2442143 -0.091928571 0.97500002
0.24556667 -0.091740005 0.97300005
0.24742001 -0.091740005 0.97300005
0.24850476 -0.091457151 0.97000003
0.25035238 -0.091457151 0.97000003
0.25220001 -0.091457151 0.97000003
0.2540476 -0.091457151 0.97000003
0.25510383 -0.091174297 0.96700007
0.25694573 -0.091174297 0.96700007
0.25878763 -0.091174297 0.96700007
0.19592857 -0.090071432 0.97500002
0.19738001 -0.089886673 0.97300005
0.19861905 -0.089609526 0.97000003
0.20046666 -0.089609526 0.97000003
0.20231429 -0.089609526 0.97000003
0.20521429 -0.090071432 0.97500002
0.20770858 -0.090348572 0.97800004
0.20957144 -0.090348572 0.97800004
0.21208286 -0.090625718 0.98100007
0.21526001 -0.091180004 0.98700005
0.21714 -0.091180004 0.98700005
0.21902001 -0.091180004 0.98700005
0.2209 -0.091180004 0.98700005
0.22278 -0.091180004 0.98700005
0.22466001 -0.091180004 0.98700005
0.22585143 -0.090902865 0.98400003
0.22772571 -0.090902865 0.98400003
0.2296 -0.090902865 0.98400003
0.23147428 -0.090902865 0.98400003
0.23334858 -0.090902865 0.98400003
0.23522286 -0.090902865 0.98400003
0.23709714 -0.090902865 0.98400003
0.23897144 -0.090902865 0.98400003
0.24011144 -0.090625718 0.98100007
0.24198 -0.090625718 0.98100007
0.24310286 -0.090348572 0.97800004
0.2442143 -0.090071432 0.97500002
0.24556667 -0.089886673 0.97300005
0.24742001 -0.089886673 0.97300005
0.24850476 -0.089609526 0.97000003
0.25035238 -0.089609526 0.97000003
0.25220001 -0.089609526 0.97000003
0.2540476 -0.089609526 0.97000003
0.25510383 -0.089332387 0.96700007
0.25694573 -0.089332387 0.96700007
0.25878763 -0.089332387 0.96700007
0.26062953 -0.089332387 0.96700007
0.19592857 -0.088214286 0.97500002
0.19738001 -0.088033341 0.97300005
0.19861905 -0.087761909 0.97000003
0.20046666 -0.087761909 0.97000003
0.20231429 -0.087761909 0.97000003
0.20521429 -0.088214286 0.97500002
0.20770858 -0.088485718 0.97800004
0.20957144 -0.088485718 0.97800004
0.21208286 -0.08875715 0.98100007
0.21526001 -0.089300007 0.98700005
0.21714 -0.089300007 0.98700005
0.21902001 -0.089300007 0.98700005
0.2209 -0.089300007 0.98700005
0.22278 -0.089300007 0.98700005
0.22466001 -0.089300007 0.98700005
0.22654 -0.089300007 0.98700005
0.22842002 -0.089300007 0.98700005
0.23030001 -0.089300007 0.98700005
0.23147428 -0.089028575 0.98400003
0.23334858 -0.089028575 0.98400003
0.23522286 -0.089028575 0.98400003
0.23709714 -0.089028575 0.98400003
0.23897144 -0.089028575 0.98400003
0.24084571 -0.089028575 0.98400003
0.24198 -0.08875715 0.98100007
0.24310286 -0.088485718 0.97800004
0.24496573 -0.088485718 0.97800004
0.24607143 -0.088214286 0.97500002
0.24742001 -0.088033341 0.97300005
0.24850476 -0.087761909 0.97000003
0.25035238 -0.087761909 0.97000003
0.25220001 -0.087761909 0.97000003
0.2540476 -0.087761909 0.97000003
0.25510383 -0.087490484 0.96700007
0.25694573 -0.087490484 0.96700007
0.25878763 -0.087490484 0.96700007
0.26062953 -0.087490484 0.96700007
0.26247147 -0.087490484 0.96700007
0.19592857 -0.086357147 0.97500002
0.19677143 -0.085914284 0.97000003
0.19861905 -0.085914284 0.97000003
0.20046666 -0.085914284 0.97000003
0.20231429 -0.085914284 0.97000003
0.20521429 -0.086357147 0.97500002
0.20770858 -0.086622857 0.97800004
0.2102143 -0.086888582 0.98100007
0.21273144 -0.087154284 0.98400003
0.21526001 -0.087420009 0.98700005
0.21714 -0.087420009 0.98700005
0.21902001 -0.087420009 0.98700005
0.2209 -0.087420009 0.98700005
0.22278 -0.087420009 0.98700005
0.22466001 -0.087420009 0.98700005
0.22654 -0.087420009 0.98700005
0.22772571 -0.087154284 0.98400003
0.2296 -0.087154284 0.98400003
0.23147428 -0.087154284 0.98400003
0.23334858 -0.087154284 0.98400003
0.23522286 -0.087154284 0.98400003
0.23709714 -0.087154284 0.98400003
0.23897144 -0.087154284 0.98400003
0.24084571 -0.087154284 0.98400003
0.24198 -0.086888582 0.98100007
0.24310286 -0.086622857 0.97800004
0.24496573 -0.086622857 0.97800004
0.24607143 -0.086357147 0.97500002
0.24792857 -0.086357147 0.97500002
0.24978571 -0.086357147 0.97500002
0.25112668 -0.086180001 0.97300005
0.25220001 -0.085914284 0.97000003
0.2540476 -0.085914284 0.97000003
0.25510383 -0.085648574 0.96700007
0.25694573 -0.085648574 0.96700007
0.25878763 -0.085648574 0.96700007
0.25982097 -0.085382864 0.96400005
0.26165715 -0.085382864 0.96400005
0.19552667 -0.08432667 0.97300005
0.19677143 -0.084066667 0.97000003
0.19861905 -0.084066667 0.97000003
0.20046666 -0.084066667 0.97000003
0.20294 -0.08432667 0.97300005
0.20584573 -0.084760003 0.97800004
0.20834573 -0.085020006 0.98100007
0.2102143 -0.085020006 0.98100007
0.21338001 -0.085540004 0.98700005
0.21526001 -0.085540004 0.98700005
0.21714 -0.085540004 0.98700005
0.21902001 -0.085540004 0.98700005
0.2209 -0.085540004 0.98700005
0.22278 -0.085540004 0.98700005
0.22466001 -0.085540004 0.98700005
0.22654 -0.085540004 0.98700005
0.22772571 -0.085280001 0.98400003
0.2296 -0.085280001 0.98400003
0.23147428 -0.085280001 0.98400003
0.23334858 -0.085280001 0.98400003
0.23594001 -0.085540004 0.98700005
0.23782001 -0.085540004 0.98700005
0.23897144 -0.085280001 0.98400003
0.24084571 -0.085280001 0.98400003
0.24198 -0.085020006 0.98100007
0.24384858 -0.085020006 0.98100007
0.24571717 -0.085020006 0.98100007
0.24682859 -0.084760003 0.97800004
0.24869144 -0.084760003 0.97800004
0.24978571 -0.0845 0.97500002
0.25112668 -0.08432667 0.97300005
0.25220001 -0.084066667 0.97000003
0.2540476 -0.084066667 0.97000003
0.25510383 -0.083806671 0.96700007
0.25694573 -0.083806671 0.96700007
0.25878763 -0.083806671 0.96700007
0.25982097 -0.083546676 0.96400005
0.26165715 -0.083546676 0.96400005
0.19552667 -0.082473338 0.97300005
0.19677143 -0.082219049 0.97000003
0.19861905 -0.082219049 0.97000003
0.20046666 -0.082219049 0.97000003
0.20294 -0.082473338 0.97300005
0.20584573 -0.082897149 0.97800004
0.20834573 -0.08315143 0.98100007
0.21085715 -0.083405718 0.98400003
0.21338001 -0.083659999 0.98700005
0.21526001 -0.083659999 0.98700005
0.21757999 -0.08382953 0.98900002
0.21902001 -0.083659999 0.98700005
0.2209 -0.083659999 0.98700005
0.22278 -0.083659999 0.98700005
0.22466001 -0.083659999 0.98700005
0.22654 -0.083659999 0.98700005
0.22842002 -0.083659999 0.98700005
0.23030001 -0.083659999 0.98700005
0.23218001 -0.083659999 0.98700005
0.23406002 -0.083659999 0.98700005
0.23594001 -0.083659999 0.98700005
0.23782001 -0.083659999 0.98700005
0.2397 -0.083659999 0.98700005
0.24084571 -0.083405718 0.98400003
0.24198 -0.08315143 0.98100007
0.24384858 -0.08315143 0.98100007
0.24571717 -0.08315143 0.98100007
0.24682859 -0.082897149 0.97800004
0.24869144 -0.082897149 0.97800004
0.24978571 -0.082642861 0.97500002
0.25164285 -0.082642861 0.97500002
0.25298002 -0.082473338 0.97300005
0.2540476 -0.082219049 0.97000003
0.25510383 -0.081964761 0.96700007
0.25694573 -0.081964761 0.96700007
0.25878763 -0.081964761 0.96700007
0.25928193 -0.081540957 0.96200007
0.2611143 -0.081540957 0.96200007
0.19552667 -0.080619998 0.97300005
0.19677143 -0.080371425 0.97000003
0.19861905 -0.080371425 0.97000003
0.20046666 -0.080371425 0.97000003
0.20294 -0.080619998 0.97300005
0.20584573 -0.081034288 0.97800004
0.20834573 -0.081282862 0.98100007
0.21085715 -0.081531428 0.98400003
0.21338001 -0.081780002 0.98700005
0.21526001 -0.081780002 0.98700005
0.21757999 -0.08194571 0.98900002
0.21902001 -0.081780002 0.98700005
0.2209 -0.081780002 0.98700005
0.22278 -0.081780002 0.98700005
0.22466001 -0.081780002 0.98700005
0.22654 -0.081780002 0.98700005
0.22842002 -0.081780002 0.98700005
0.23030001 -0.081780002 0.98700005
0.23218001 -0.081780002 0.98700005
0.23406002 -0.081780002 0.98700005
0.23594001 -0.081780002 0.98700005
0.23782001 -0.081780002 0.98700005
0.2397 -0.081780002 0.98700005
0.24084571 -0.081531428 0.98400003
0.24198 -0.081282862 0.98100007
0.24384858 -0.081282862 0.98100007
0.24571717 -0.081282862 0.98100007
0.24682859 -0.081034288 0.97800004
0.24869144 -0.081034288 0.97800004
0.24978571 -0.080785714 0.97500002
0.25164285 -0.080785714 0.97500002
0.25298002 -0.080619998 0.97300005
0.2540476 -0.080371425 0.97000003
0.25589523 -0.080371425 0.97000003
0.25694573 -0.080122858 0.96700007
0.25878763 -0.080122858 0.96700007
0.25928193 -0.079708576 0.96200007
0.2611143 -0.079708576 0.96200007
0.19552667 -0.078766666 0.97300005
0.19677143 -0.078523815 0.97000003
0.19861905 -0.078523815 0.97000003
0.20046666 -0.078523815 0.97000003
0.20335715 -0.078928567 0.97500002
0.20647715 -0.079414286 0.98100007
0.20834573 -0.079414286 0.98100007
0.21085715 -0.079657145 0.98400003
0.21338001 -0.079900004 0.98700005
0.21526001 -0.079900004 0.98700005
0.21757999 -0.080061905 0.98900002
0.21902001 -0.079900004 0.98700005
0.2209 -0.079900004 0.98700005
0.22278 -0.079900004 0.98700005
0.22466001 -0.079900004 0.98700005
0.22654 -0.079900004 0.98700005
0.22842002 -0.079900004 0.98700005
0.23030001 -0.079900004 0.98700005
0.23218001 -0.079900004 0.98700005
0.2397 -0.079900004 0.98700005
0.24158001 -0.079900004 0.98700005
0.24271999 -0.079657145 0.98400003
0.24384858 -0.079414286 0.98100007
0.24571717 -0.079414286 0.98100007
0.24758574 -0.079414286 0.98100007
0.24869144 -0.079171434 0.97800004
0.25055429 -0.079171434 0.97800004
0.25164285 -0.078928567 0.97500002
0.25298002 -0.078766666 0.97300005
0.2540476 -0.078523815 0.97000003
0.25589523 -0.078523815 0.97000003
0.25694573 -0.078280956 0.96700007
0.25878763 -0.078280956 0.96700007
0.25928193 -0.077876195 0.96200007
0.26030001 -0.077633336 0.95900005
0.26212665 -0.077633336 0.95900005
0.19552667 -0.076913334 0.97300005
0.19677143 -0.07667619 0.97000003
0.19861905 -0.07667619 0.97000003
0.20108667 -0.076913334 0.97300005
0.20335715 -0.077071428 0.97500002
0.20647715 -0.077545717 0.98100007
0.20834573 -0.077545717 0.98100007
0.21085715 -0.077782862 0.98400003
0.21338001 -0.078020006 0.98700005
0.21526001 -0.078020006 0.98700005
0.21902001 -0.078020006 0.98700005
0.2209 -0.078020006 0.98700005
0.22278 -0.078020006 0.98700005
0.22466001 -0.078020006 0.98700005
0.22654 -0.078020006 0.98700005
0.22842002 -0.078020006 0.98700005
0.2397 -0.078020006 0.98700005
0.24158001 -0.078020006 0.98700005
0.24271999 -0.077782862 0.98400003
0.24384858 -0.077545717 0.98100007
0.24571717 -0.077545717 0.98100007
0.24758574 -0.077545717 0.98100007
0.24869144 -0.077308573 0.97800004
0.25055429 -0.077308573 0.97800004
0.25164285 -0.077071428 0.97500002
0.25298002 -0.076913334 0.97300005
0.2540476 -0.07667619 0.97000003
0.25589523 -0.07667619 0.97000003
0.25694573 -0.076439053 0.96700007
0.25878763 -0.076439053 0.96700007
0.25928193 -0.076043814 0.96200007
0.26030001 -0.07580667 0.95900005
0.26212665 -0.07580667 0.95900005
0.19552667 -0.075060003 0.97300005
0.19677143 -0.074828573 0.97000003
0.19861905 -0.074828573 0.97000003
0.20108667 -0.075060003 0.97300005
0.20398286 -0.075445719 0.97800004
0.20647715 -0.075677149 0.98100007
0.20898286 -0.075908571 0.98400003
0.2115 -0.076140001 0.98700005
0.21338001 -0.076140001 0.98700005
0.21526001 -0.076140001 0.98700005
0.24271999 -0.075908571 0.98400003
0.24384858 -0.075677149 0.98100007
0.24571717 -0.075677149 0.98100007
0.24758574 -0.075677149 0.98100007
0.24869144 -0.075445719 0.97800004
0.25055429 -0.075445719 0.97800004
0.25164285 -0.075214282 0.97500002
0.25298002 -0.075060003 0.97300005
0.2540476 -0.074828573 0.97000003
0.25589523 -0.074828573 0.97000003
0.25694573 -0.074597143 0.96700007
0.25798476 -0.07436572 0.96400005
0.25928193 -0.074211434 0.96200007
0.2611143 -0.074211434 0.96200007
0.2629467 -0.074211434 0.96200007
0.19586286 -0.074034289 0.98400003
0.19592857 -0.073357143 0.97500002
0.19738001 -0.073206671 0.97300005
0.19923334 -0.073206671 0.97300005
0.20150001 -0.073357143 0.97500002
0.20460859 -0.073808581 0.98100007
0.20647715 -0.073808581 0.98100007
0.20898286 -0.074034289 0.98400003
0.24271999 -0.074034289 0.98400003
0.24384858 -0.073808581 0.98100007
0.24571717 -0.073808581 0.98100007
0.24758574 -0.073808581 0.98100007
0.24869144 -0.073582858 0.97800004
0.25055429 -0.073582858 0.97800004
0.25164285 -0.073357143 0.97500002
0.25298002 -0.073206671 0.97300005
0.2540476 -0.072980955 0.97000003
0.25510383 -0.07275524 0.96700007
0.25561714 -0.072379053 0.96200007
0.25744954 -0.072379053 0.96200007
0.25928193 -0.072379053 0.96200007
0.26030001 -0.072153337 0.95900005
0.26212665 -0.072153337 0.95900005
0.19586286 -0.072160006 0.98400003
0.19592857 -0.071500003 0.97500002
0.19778572 -0.071500003 0.97500002
0.19964285 -0.071500003 0.97500002
0.20212001 -0.071719997 0.97800004
0.20460859 -0.071940005 0.98100007
0.20647715 -0.071940005 0.98100007
0.20898286 -0.072160006 0.98400003
0.21273144 -0.072160006 0.98400003
0.21460572 -0.072160006 0.98400003
0.24384858 -0.071940005 0.98100007
0.24571717 -0.071940005 0.98100007
0.24758574 -0.071940005 0.98100007
0.24869144 -0.071719997 0.97800004
0.25055429 -0.071719997 0.97800004
0.25164285 -0.071500003 0.97500002
0.25298002 -0.071353339 0.97300005
0.2540476 -0.071133338 0.97000003
0.25510383 -0.070913337 0.96700007
0.25561714 -0.070546672 0.96200007
0.25744954 -0.070546672 0.96200007
0.25928193 -0.070546672 0.96200007
0.25948572 -0.070106663 0.95600003
0.26130667 -0.070106663 0.95600003
0.19586286 -0.070285715 0.98400003
0.19653144 -0.06985715 0.97800004
0.1983943 -0.06985715 0.97800004
0.20025714 -0.06985715 0.97800004
0.20274001 -0.070071429 0.98100007
0.20460859 -0.070071429 0.98100007
0.24384858 -0.070071429 0.98100007
0.24571717 -0.070071429 0.98100007
0.24682859 -0.06985715 0.97800004
0.24869144 -0.06985715 0.97800004
0.24978571 -0.069642857 0.97500002
0.25112668 -0.069500007 0.97300005
0.25298002 -0.069500007 0.97300005
0.25326192 -0.069071427 0.96700007
0.25510383 -0.069071427 0.96700007
0.25481999 -0.068500005 0.95900005
0.25664666 -0.068500005 0.95900005
0.25847334 -0.068500005 0.95900005
0.25948572 -0.068285719 0.95600003
0.26130667 -0.068285719 0.95600003
0.19900288 -0.068202861 0.98100007
0.20087144 -0.068202861 0.98100007
0.20274001 -0.068202861 0.98100007
0.20460859 -0.068202861 0.98100007
0.24011144 -0.068202861 0.98100007
0.24198 -0.068202861 0.98100007
0.24384858 -0.068202861 0.98100007
0.24496573 -0.067994289 0.97800004
0.24682859 -0.067994289 0.97800004
0.24869144 -0.067994289 0.97800004
0.24978571 -0.067785718 0.97500002
0.25112668 -0.067646675 0.97300005
0.25298002 -0.067646675 0.97300005
0.25326192 -0.067229524 0.96700007
0.25378478 -0.06688191 0.96200007
0.25481999 -0.066673338 0.95900005
0.25664666 -0.066673338 0.95900005
0.25847334 -0.066673338 0.95900005
0.26030001 -0.066673338 0.95900005
0.20087144 -0.066334285 0.98100007
0.20274001 -0.066334285 0.98100007
0.24310286 -0.066131428 0.97800004
0.24496573 -0.066131428 0.97800004
0.24682859 -0.066131428 0.97800004
0.24869144 -0.066131428 0.97800004
0.24978571 -0.065928571 0.97500002
0.25164285 -0.065928571 0.97500002
0.25220001 -0.065590478 0.97000003
0.25326192 -0.065387622 0.96700007
0.25299335 -0.064846672 0.95900005
0.25402287 -0.064643808 0.95600003
0.25584382 -0.064643808 0.95600003
0.25847334 -0.064846672 0.95900005
0.26030001 -0.064846672 0.95900005
0.24124001 -0.064268574 0.97800004
0.24310286 -0.064268574 0.97800004
0.24496573 -0.064268574 0.97800004
0.24682859 -0.064268574 0.97800004
0.24792857 -0.064071432 0.97500002
0.24978571 -0.064071432 0.97500002
0.25112668 -0.063940004 0.97300005
0.25220001 -0.063742854 0.97000003
0.25326192 -0.063545719 0.96700007
0.25299335 -0.063020006 0.95900005
0.25402287 -0.062822863 0.95600003
0.25584382 -0.062822863 0.95600003
0.24235715 -0.062214289 0.97500002
0.2442143 -0.062214289 0.97500002
0.24607143 -0.062214289 0.97500002
0.24792857 -0.062214289 0.97500002
0.24978571 -0.062214289 0.97500002
0.25112668 -0.062086668 0.97300005
0.25220001 -0.061895244 0.97000003
0.25326192 -0.061703809 0.96700007
0.25299335 -0.06119334 0.95900005
0.25481999 -0.06119334 0.95900005
0.25664666 -0.06119334 0.95900005
0.26062953 -0.061703809 0.96700007
0.23864287 -0.060357142 0.97500002
0.24000669 -0.060233336 0.97300005
0.24186002 -0.060233336 0.97300005
0.2429619 -0.060047623 0.97000003
0.24480954 -0.060047623 0.97000003
0.24665716 -0.060047623 0.97000003
0.24927333 -0.060233336 0.97300005
0.25112668 -0.060233336 0.97300005
0.25220001 -0.060047623 0.97000003
0.2540476 -0.060047623 0.97000003
0.25589523 -0.060047623 0.97000003
0.25614861 -0.059676193 0.96400005
0.25798476 -0.059676193 0.96400005
0.26062953 -0.059861906 0.96700007
0.23864287 -0.058500003 0.97500002
0.24000669 -0.058380004 0.97300005
0.24186002 -0.058380004 0.97300005
0.2429619 -0.058200002 0.97000003
0.24480954 -0.058200002 0.97000003
0.24665716 -0.058200002 0.97000003
0.24927333 -0.058380004 0.97300005
0.25112668 -0.058380004 0.97300005
0.25298002 -0.058380004 0.97300005
0.20849906 -0.055539049 0.95600003
0.21032001 -0.055539049 0.95600003
0.21169715 -0.055422861 0.95400006
0.2135143 -0.055422861 0.95400006
0.2146543 -0.055248573 0.95100003
0.21646571 -0.055248573 0.95100003
0.21827716 -0.055248573 0.95100003
0.24371335 -0.056526672 0.97300005
0.24556667 -0.056526672 0.97300005
0.2090562 -0.054336194 0.96700007
0.20849906 -0.053718098 0.95600003
0.21032001 -0.053718098 0.95600003
0.21169715 -0.053605717 0.95400006
0.2135143 -0.053605717 0.95400006
0.21397714 -0.053268574 0.94800007
0.21578288 -0.053268574 0.94800007
0.21827716 -0.053437144 0.95100003
0.22309716 -0.054167621 0.96400005
0.2090562 -0.052494287 0.96700007
0.20980763 -0.052222859 0.96200007
0.21098 -0.052060001 0.95900005
0.21214095 -0.051897142 0.95600003
0.2135143 -0.051788572 0.95400006
0.21397714 -0.051462859 0.94800007
0.21578288 -0.051462859 0.94800007
0.22126095 -0.052331429 0.96400005
0.22309716 -0.052331429 0.96400005
0.22633334 -0.052657142 0.97000003
0.2090562 -0.050652385 0.96700007
0.20980763 -0.050390478 0.96200007
0.21098 -0.050233334 0.95900005
0.21214095 -0.05007619 0.95600003
0.2135143 -0.049971428 0.95400006
0.21397714 -0.049657144 0.94800007
0.21578288 -0.049657144 0.94800007
0.22126095 -0.050495241 0.96400005
0.22309716 -0.050495241 0.96400005
0.22563335 -0.050652385 0.96700007
0.22818096 -0.050809525 0.97000003
0.20970476 -0.048961904 0.97000003
0.2108981 -0.048810478 0.96700007
0.21208 -0.048659049 0.96400005
0.21280667 -0.048406668 0.95900005
0.21463333 -0.048406668 0.95900005
0.21646 -0.048406668 0.95900005
0.21828668 -0.048406668 0.95900005
0.22194953 -0.048810478 0.96700007
0.22379145 -0.048810478 0.96700007
0.22563335 -0.048810478 0.96700007
0.22747526 -0.048810478 0.96700007
0.21458192 -0.046968576 0.96700007
0.21575239 -0.046822857 0.96400005
0.21758859 -0.046822857 0.96400005
0.21942477 -0.046822857 0.96400005
0.22194953 -0.046968576 0.96700007
0.22379145 -0.046968576 0.96700007
0.22563335 -0.046968576 0.96700007
0.22747526 -0.046968576 0.96700007
0.22169222 -0.050106078 0.94976825
0 0 0 1 0 0 0 1 0 0 0 1 0 0 0 0 0 756 1 0 0
