ply
format ascii 1.0
comment PCL generated
element vertex 485
property float x
property float y
property float z
element camera 1
property float view_px
property float view_py
property float view_pz
property float x_axisx
property float x_axisy
property float x_axisz
property float y_axisx
property float y_axisy
property float y_axisz
property float z_axisx
property float z_axisy
property float z_axisz
property float focal
property float scalex
property float scaley
property float centerx
property float centery
property int viewportx
property int viewporty
property float k1
property float k2
end_header
0.2653743 -0.10234572 0.95100003
0.26634288 -0.10202286 0.94800007
0.2681486 -0.10202286 0.94800007
0.26995429 -0.10202286 0.94800007
0.27634665 -0.10374477 0.96400005
0.27818286 -0.10374477 0.96400005
0.27943814 -0.10352953 0.96200007
0.28039336 -0.10320667 0.95900005
0.28222001 -0.10320667 0.95900005
0.26273143 -0.10021715 0.94800007
0.26453716 -0.10021715 0.94800007
0.26634288 -0.10021715 0.94800007
0.2681486 -0.10021715 0.94800007
0.26995429 -0.10021715 0.94800007
0.27176002 -0.10021715 0.94800007
0.27356574 -0.10021715 0.94800007
0.27537143 -0.10021715 0.94800007
0.2780543 -0.10053429 0.95100003
0.27898288 -0.10021715 0.94800007
0.2807886 -0.10021715 0.94800007
0.25731429 -0.098411433 0.94800007
0.25857335 -0.098203816 0.94600004
0.26037526 -0.098203816 0.94600004
0.26273143 -0.098411433 0.94800007
0.26453716 -0.098411433 0.94800007
0.26634288 -0.098411433 0.94800007
0.2681486 -0.098411433 0.94800007
0.26995429 -0.098411433 0.94800007
0.27176002 -0.098411433 0.94800007
0.27356574 -0.098411433 0.94800007
0.27537143 -0.098411433 0.94800007
0.27717716 -0.098411433 0.94800007
0.27898288 -0.098411433 0.94800007
0.2807886 -0.098411433 0.94800007
0.28259432 -0.098411433 0.94800007
0.28440002 -0.098411433 0.94800007
0.25496954 -0.096401908 0.94600004
0.25677145 -0.096401908 0.94600004
0.25857335 -0.096401908 0.94600004
0.26037526 -0.096401908 0.94600004
0.26217714 -0.096401908 0.94600004
0.26397905 -0.096401908 0.94600004
0.26578096 -0.096401908 0.94600004
0.2681486 -0.096605718 0.94800007
0.26995429 -0.096605718 0.94800007
0.27176002 -0.096605718 0.94800007
0.27356574 -0.096605718 0.94800007
0.27537143 -0.096605718 0.94800007
0.27717716 -0.096605718 0.94800007
0.27898288 -0.096605718 0.94800007
0.2807886 -0.096605718 0.94800007
0.28259432 -0.096605718 0.94800007
0.28440002 -0.096605718 0.94800007
0.28620574 -0.096605718 0.94800007
0.25370288 -0.09480001 0.94800007
0.25496954 -0.094599999 0.94600004
0.25595716 -0.094300002 0.94300002
0.25775331 -0.094300002 0.94300002
0.26037526 -0.094599999 0.94600004
0.26217714 -0.094599999 0.94600004
0.26397905 -0.094599999 0.94600004
0.26578096 -0.094599999 0.94600004
0.2681486 -0.09480001 0.94800007
0.26995429 -0.09480001 0.94800007
0.27176002 -0.09480001 0.94800007
0.27356574 -0.09480001 0.94800007
0.27537143 -0.09480001 0.94800007
0.27717716 -0.09480001 0.94800007
0.27839431 -0.094599999 0.94600004
0.28019622 -0.094599999 0.94600004
0.28199813 -0.094599999 0.94600004
0.28380001 -0.094599999 0.94600004
0.28560191 -0.094599999 0.94600004
0.28740382 -0.094599999 0.94600004
0.25220191 -0.09377905 0.95600003
0.25189719 -0.092994288 0.94800007
0.25316763 -0.092798099 0.94600004
0.25496954 -0.092798099 0.94600004
0.25595716 -0.092503816 0.94300002
0.25775331 -0.092503816 0.94300002
0.26037526 -0.092798099 0.94600004
0.26217714 -0.092798099 0.94600004
0.26397905 -0.092798099 0.94600004
0.26578096 -0.092798099 0.94600004
0.2681486 -0.092994288 0.94800007
0.26995429 -0.092994288 0.94800007
0.27176002 -0.092994288 0.94800007
0.27356574 -0.092994288 0.94800007
0.27537143 -0.092994288 0.94800007
0.27717716 -0.092994288 0.94800007
0.27839431 -0.092798099 0.94600004
0.28019622 -0.092798099 0.94600004
0.28199813 -0.092798099 0.94600004
0.28380001 -0.092798099 0.94600004
0.28560191 -0.092798099 0.94600004
0.28740382 -0.092798099 0.94600004
0.28920573 -0.092798099 0.94600004
0.25116667 -0.092246674 0.95900005
0.25088286 -0.091477141 0.95100003
0.25136572 -0.090996191 0.94600004
0.25316763 -0.090996191 0.94600004
0.25496954 -0.090996191 0.94600004
0.25677145 -0.090996191 0.94600004
0.25857335 -0.090996191 0.94600004
0.26037526 -0.090996191 0.94600004
0.26217714 -0.090996191 0.94600004
0.26397905 -0.090996191 0.94600004
0.26634288 -0.09118858 0.94800007
0.2681486 -0.09118858 0.94800007
0.26995429 -0.09118858 0.94800007
0.27176002 -0.09118858 0.94800007
0.27356574 -0.09118858 0.94800007
0.27537143 -0.09118858 0.94800007
0.27659237 -0.090996191 0.94600004
0.27839431 -0.090996191 0.94600004
0.28019622 -0.090996191 0.94600004
0.28199813 -0.090996191 0.94600004
0.28380001 -0.090996191 0.94600004
0.28560191 -0.090996191 0.94600004
0.28740382 -0.090996191 0.94600004
0.28920573 -0.090996191 0.94600004
0.29162288 -0.09118858 0.94800007
0.24934 -0.09042 0.95900005
0.24985714 -0.08994858 0.95400006
0.24956383 -0.08919429 0.94600004
0.25056857 -0.088911429 0.94300002
0.25236475 -0.088911429 0.94300002
0.25416097 -0.088911429 0.94300002
0.25595716 -0.088911429 0.94300002
0.25857335 -0.08919429 0.94600004
0.26037526 -0.08919429 0.94600004
0.26217714 -0.08919429 0.94600004
0.26397905 -0.08919429 0.94600004
0.26634288 -0.089382865 0.94800007
0.2681486 -0.089382865 0.94800007
0.26995429 -0.089382865 0.94800007
0.27176002 -0.089382865 0.94800007
0.27356574 -0.089382865 0.94800007
0.27537143 -0.089382865 0.94800007
0.27659237 -0.08919429 0.94600004
0.27839431 -0.08919429 0.94600004
0.28019622 -0.08919429 0.94600004
0.28110379 -0.088911429 0.94300002
0.28290001 -0.088911429 0.94300002
0.28379047 -0.088628575 0.94000006
0.28558096 -0.088628575 0.94000006
0.28828856 -0.088911429 0.94300002
0.29008478 -0.088911429 0.94300002
0.29280955 -0.08919429 0.94600004
0.24856 -0.088316195 0.95600003
0.24985714 -0.088131428 0.95400006
0.24956383 -0.087392382 0.94600004
0.25056857 -0.087115236 0.94300002
0.25236475 -0.087115236 0.94300002
0.25416097 -0.087115236 0.94300002
0.25595716 -0.087115236 0.94300002
0.25775331 -0.087115236 0.94300002
0.26037526 -0.087392382 0.94600004
0.26217714 -0.087392382 0.94600004
0.26453716 -0.087577149 0.94800007
0.26634288 -0.087577149 0.94800007
0.2681486 -0.087577149 0.94800007
0.26995429 -0.087577149 0.94800007
0.27176002 -0.087577149 0.94800007
0.27356574 -0.087577149 0.94800007
0.27537143 -0.087577149 0.94800007
0.27659237 -0.087392382 0.94600004
0.27839431 -0.087392382 0.94600004
0.28019622 -0.087392382 0.94600004
0.28110379 -0.087115236 0.94300002
0.28290001 -0.087115236 0.94300002
0.28379047 -0.086838104 0.94000006
0.28558096 -0.086838104 0.94000006
0.28676003 -0.086653329 0.93800002
0.28854665 -0.086653329 0.93800002
0.29095241 -0.086838104 0.94000006
0.24856 -0.086495236 0.95600003
0.24985714 -0.086314291 0.95400006
0.24956383 -0.085590474 0.94600004
0.25056857 -0.085319042 0.94300002
0.25236475 -0.085319042 0.94300002
0.25416097 -0.085319042 0.94300002
0.25595716 -0.085319042 0.94300002
0.25775331 -0.085319042 0.94300002
0.26092574 -0.085771434 0.94800007
0.26356286 -0.086042859 0.95100003
0.2653743 -0.086042859 0.95100003
0.26802859 -0.086314291 0.95400006
0.26984572 -0.086314291 0.95400006
0.27080858 -0.086042859 0.95100003
0.27261999 -0.086042859 0.95100003
0.27443144 -0.086042859 0.95100003
0.27624288 -0.086042859 0.95100003
0.2780543 -0.086042859 0.95100003
0.27839431 -0.085590474 0.94600004
0.28019622 -0.085590474 0.94600004
0.28110379 -0.085319042 0.94300002
0.28200001 -0.085047618 0.94000006
0.28318667 -0.084866665 0.93800002
0.28497335 -0.084866665 0.93800002
0.28676003 -0.084866665 0.93800002
0.28854665 -0.084866665 0.93800002
0.29033333 -0.084866665 0.93800002
0.29212001 -0.084866665 0.93800002
0.24985714 -0.084497146 0.95400006
0.24956383 -0.083788574 0.94600004
0.24977143 -0.083257146 0.94000006
0.25156191 -0.083257146 0.94000006
0.2533524 -0.083257146 0.94000006
0.25514287 -0.083257146 0.94000006
0.25775331 -0.083522864 0.94300002
0.26092574 -0.083965719 0.94800007
0.26356286 -0.084231429 0.95100003
0.26621142 -0.084497146 0.95400006
0.26802859 -0.084497146 0.95400006
0.26984572 -0.084497146 0.95400006
0.27166286 -0.084497146 0.95400006
0.27348003 -0.084497146 0.95400006
0.27529716 -0.084497146 0.95400006
0.2771143 -0.084497146 0.95400006
0.2780543 -0.084231429 0.95100003
0.27839431 -0.083788574 0.94600004
0.28019622 -0.083788574 0.94600004
0.28110379 -0.083522864 0.94300002
0.28200001 -0.083257146 0.94000006
0.28318667 -0.083080001 0.93800002
0.28497335 -0.083080001 0.93800002
0.28584287 -0.082814291 0.93500006
0.28762382 -0.082814291 0.93500006
0.28940478 -0.082814291 0.93500006
0.29118574 -0.082814291 0.93500006
0.29296669 -0.082814291 0.93500006
0.24804002 -0.082680002 0.95400006
0.24985714 -0.082680002 0.95400006
0.24877238 -0.08172667 0.94300002
0.24924 -0.081293337 0.93800002
0.25102666 -0.081293337 0.93800002
0.25281334 -0.081293337 0.93800002
0.25460002 -0.081293337 0.93800002
0.25693336 -0.081466675 0.94000006
0.26037526 -0.081986673 0.94600004
0.26356286 -0.082419999 0.95100003
0.2780543 -0.082419999 0.95100003
0.27839431 -0.081986673 0.94600004
0.27930763 -0.08172667 0.94300002
0.28110379 -0.08172667 0.94300002
0.28200001 -0.081466675 0.94000006
0.28379047 -0.081466675 0.94000006
0.28497335 -0.081293337 0.93800002
0.28584287 -0.081033342 0.93500006
0.28762382 -0.081033342 0.93500006
0.28940478 -0.081033342 0.93500006
0.29118574 -0.081033342 0.93500006
0.29296669 -0.081033342 0.93500006
0.29632381 -0.081466675 0.94000006
0.24877238 -0.079930477 0.94300002
0.24924 -0.079506665 0.93800002
0.25102666 -0.079506665 0.93800002
0.25281334 -0.079506665 0.93800002
0.25460002 -0.079506665 0.93800002
0.25638667 -0.079506665 0.93800002
0.26037526 -0.080184758 0.94600004
0.26356286 -0.080608569 0.95100003
0.2780543 -0.080608569 0.95100003
0.27839431 -0.080184758 0.94600004
0.27930763 -0.079930477 0.94300002
0.28020954 -0.079676196 0.94000006
0.28200001 -0.079676196 0.94000006
0.28318667 -0.079506665 0.93800002
0.28497335 -0.079506665 0.93800002
0.28584287 -0.079252385 0.93500006
0.28762382 -0.079252385 0.93500006
0.28940478 -0.079252385 0.93500006
0.29118574 -0.079252385 0.93500006
0.29296669 -0.079252385 0.93500006
0.29569334 -0.079506665 0.93800002
0.24877238 -0.078134283 0.94300002
0.24924 -0.077720001 0.93800002
0.25102666 -0.077720001 0.93800002
0.25200477 -0.077471435 0.93500006
0.25378573 -0.077471435 0.93500006
0.25556669 -0.077471435 0.93500006
0.2587238 -0.077885717 0.94000006
0.27839431 -0.078382857 0.94600004
0.27930763 -0.078134283 0.94300002
0.28020954 -0.077885717 0.94000006
0.2814 -0.077720001 0.93800002
0.28318667 -0.077720001 0.93800002
0.28406191 -0.077471435 0.93500006
0.28584287 -0.077471435 0.93500006
0.28762382 -0.077471435 0.93500006
0.28940478 -0.077471435 0.93500006
0.29118574 -0.077471435 0.93500006
0.29296669 -0.077471435 0.93500006
0.29569334 -0.077720001 0.93800002
0.29747999 -0.077720001 0.93800002
0.24956383 -0.076580957 0.94600004
0.24924 -0.075933337 0.93800002
0.25102666 -0.075933337 0.93800002
0.25200477 -0.075690478 0.93500006
0.25378573 -0.075690478 0.93500006
0.25556669 -0.075690478 0.93500006
0.25817332 -0.075933337 0.93800002
0.27839431 -0.076580957 0.94600004
0.27930763 -0.07633809 0.94300002
0.28020954 -0.076095238 0.94000006
0.2814 -0.075933337 0.93800002
0.28318667 -0.075933337 0.93800002
0.28406191 -0.075690478 0.93500006
0.28584287 -0.075690478 0.93500006
0.28762382 -0.075690478 0.93500006
0.28940478 -0.075690478 0.93500006
0.29118574 -0.075690478 0.93500006
0.29296669 -0.075690478 0.93500006
0.29569334 -0.075933337 0.93800002
0.29747999 -0.075933337 0.93800002
0.24956383 -0.074779049 0.94600004
0.24977143 -0.074304767 0.94000006
0.25102666 -0.074146673 0.93800002
0.25200477 -0.073909529 0.93500006
0.25378573 -0.073909529 0.93500006
0.25556669 -0.073909529 0.93500006
0.25817332 -0.074146673 0.93800002
0.27839431 -0.074779049 0.94600004
0.27930763 -0.074541911 0.94300002
0.28020954 -0.074304767 0.94000006
0.2814 -0.074146673 0.93800002
0.28318667 -0.074146673 0.93800002
0.28406191 -0.073909529 0.93500006
0.28523144 -0.073751427 0.93300003
0.28700858 -0.073751427 0.93300003
0.28878573 -0.073751427 0.93300003
0.29118574 -0.073909529 0.93500006
0.29296669 -0.073909529 0.93500006
0.29569334 -0.074146673 0.93800002
0.29906571 -0.074541911 0.94300002
0.25009143 -0.073131435 0.94800007
0.25056857 -0.072745718 0.94300002
0.25102666 -0.072360002 0.93800002
0.25281334 -0.072360002 0.93800002
0.25378573 -0.072128579 0.93500006
0.25556669 -0.072128579 0.93500006
0.25817332 -0.072360002 0.93800002
0.25996 -0.072360002 0.93800002
0.27839431 -0.072977141 0.94600004
0.27930763 -0.072745718 0.94300002
0.27961332 -0.072360002 0.93800002
0.28050002 -0.072128579 0.93500006
0.28228098 -0.072128579 0.93500006
0.2834543 -0.071974292 0.93300003
0.28523144 -0.071974292 0.93300003
0.28700858 -0.071974292 0.93300003
0.28878573 -0.071974292 0.93300003
0.29056287 -0.071974292 0.93300003
0.29296669 -0.072128579 0.93500006
0.29632381 -0.072514288 0.94000006
0.29906571 -0.072745718 0.94300002
0.25056857 -0.070949525 0.94300002
0.25102666 -0.070573337 0.93800002
0.25281334 -0.070573337 0.93800002
0.25378573 -0.070347622 0.93500006
0.25556669 -0.070347622 0.93500006
0.25734764 -0.070347622 0.93500006
0.25996 -0.070573337 0.93800002
0.27839431 -0.07117524 0.94600004
0.27841908 -0.070723809 0.94000006
0.27871907 -0.070347622 0.93500006
0.27990001 -0.070197143 0.93300003
0.28167716 -0.070197143 0.93300003
0.28254285 -0.069971435 0.93000007
0.2843143 -0.069971435 0.93000007
0.28608572 -0.069971435 0.93000007
0.28785717 -0.069971435 0.93000007
0.29056287 -0.070197143 0.93300003
0.29296669 -0.070347622 0.93500006
0.29726952 -0.070949525 0.94300002
0.25056857 -0.069153331 0.94300002
0.25102666 -0.068786673 0.93800002
0.25281334 -0.068786673 0.93800002
0.25378573 -0.068566665 0.93500006
0.25556669 -0.068566665 0.93500006
0.25734764 -0.068566665 0.93500006
0.2591286 -0.068566665 0.93500006
0.27841908 -0.068933338 0.94000006
0.27812287 -0.06842 0.93300003
0.27990001 -0.06842 0.93300003
0.28167716 -0.06842 0.93300003
0.28254285 -0.068200007 0.93000007
0.28370285 -0.068053335 0.92800003
0.28547049 -0.068053335 0.92800003
0.28785717 -0.068200007 0.93000007
0.29056287 -0.06842 0.93300003
0.29390669 -0.068786673 0.93800002
0.29726952 -0.069153331 0.94300002
0.25156191 -0.067142867 0.94000006
0.25281334 -0.066999994 0.93800002
0.25378573 -0.066785723 0.93500006
0.25556669 -0.066785723 0.93500006
0.25734764 -0.066785723 0.93500006
0.2591286 -0.066785723 0.93500006
0.26090953 -0.066785723 0.93500006
0.26493809 -0.067357138 0.94300002
0.2766324 -0.066285722 0.92800003
0.2784 -0.066285722 0.92800003
0.28077146 -0.066428579 0.93000007
0.28193524 -0.066285722 0.92800003
0.28370285 -0.066285722 0.92800003
0.28547049 -0.066285722 0.92800003
0.28785717 -0.066428579 0.93000007
0.29118574 -0.066785723 0.93500006
0.29453334 -0.067142867 0.94000006
0.29726952 -0.067357138 0.94300002
0.25236475 -0.065560959 0.94300002
0.2533524 -0.06535238 0.94000006
0.25460002 -0.06521333 0.93800002
0.25556669 -0.065004766 0.93500006
0.25734764 -0.065004766 0.93500006
0.2591286 -0.065004766 0.93500006
0.26090953 -0.065004766 0.93500006
0.26409525 -0.06535238 0.94000006
0.27074286 -0.063961908 0.92000002
0.27249524 -0.063961908 0.92000002
0.27424762 -0.063961908 0.92000002
0.27690002 -0.06417048 0.92300004
0.27926195 -0.064309523 0.92500007
0.28102383 -0.064309523 0.92500007
0.28370285 -0.064518094 0.92800003
0.28547049 -0.064518094 0.92800003
0.28878573 -0.064865716 0.93300003
0.29212001 -0.06521333 0.93800002
0.29453334 -0.06535238 0.94000006
0.2533524 -0.063561909 0.94000006
0.25460002 -0.063426666 0.93800002
0.25638667 -0.063426666 0.93800002
0.25734764 -0.063223809 0.93500006
0.2591286 -0.063223809 0.93500006
0.26174667 -0.063426666 0.93800002
0.26409525 -0.063561909 0.94000006
0.27074286 -0.062209524 0.92000002
0.27249524 -0.062209524 0.92000002
0.27424762 -0.062209524 0.92000002
0.27690002 -0.062412385 0.92300004
0.27926195 -0.062547624 0.92500007
0.28102383 -0.062547624 0.92500007
0.28370285 -0.062750474 0.92800003
0.28854665 -0.063426666 0.93800002
0.29033333 -0.063426666 0.93800002
0.29274285 -0.063561909 0.94000006
0.25514287 -0.06177143 0.94000006
0.25693336 -0.06177143 0.94000006
0.25817332 -0.061639998 0.93800002
0.25996 -0.061639998 0.93800002
0.27693811 -0.061442863 0.93500006
0.27722859 -0.061114289 0.93000007
0.27900001 -0.061114289 0.93000007
0.28228098 -0.061442863 0.93500006
0.28406191 -0.061442863 0.93500006
0.28584287 -0.061442863 0.93500006
0.28854665 -0.061639998 0.93800002
0.29033333 -0.061639998 0.93800002
0.26710668 -0.059853334 0.93800002
0.26889333 -0.059853334 0.93800002
0.27068001 -0.059853334 0.93800002
0.27101427 -0.059534285 0.93300003
0.27279142 -0.059534285 0.93300003
0.27456856 -0.059534285 0.93300003
0.2763457 -0.059534285 0.93300003
0.27722859 -0.059342861 0.93000007
0.27900001 -0.059342861 0.93000007
0.28228098 -0.05966191 0.93500006
0.28497335 -0.059853334 0.93800002
0.28676003 -0.059853334 0.93800002
0.26710668 -0.058066666 0.93800002
0.26889333 -0.058066666 0.93800002
0.27068001 -0.058066666 0.93800002
0.27101427 -0.057757143 0.93300003
0.27279142 -0.057757143 0.93300003
0.27456856 -0.057757143 0.93300003
0.2763457 -0.057757143 0.93300003
0.27812287 -0.057757143 0.93300003
0.27990001 -0.057757143 0.93300003
0.28228098 -0.057880957 0.93500006
0.27159524 -0.056100003 0.93500006
0.2733762 -0.056100003 0.93500006
0.25189403 -0.10478701 0.95211321
0 0 0 1 0 0 0 1 0 0 0 1 0 0 0 0 0 485 1 0 0
