ply
format ascii 1.0
comment PCL generated
element vertex 1182
property float x
property float y
property float z
element camera 0
property float view_px
property float view_py
property float view_pz
property float x_axisx
property float x_axisy
property float x_axisz
property float y_axisx
property float y_axisy
property float y_axisz
property float z_axisx
property float z_axisy
property float z_axisz
property float focal
property float scalex
property float scaley
property float centerx
property float centery
property int viewportx
property int viewporty
property float k1
property float k2
end_header
0.00611364 0.0031308653 4.345997e-08
0.00094717526 0.0041463915 0.00059063383
0.0032337063 0.0057256958 3.3604952e-08
0.0022835932 0.0056656119 0.00059079641
0.0017480111 0.0010349314 2.9519144e-05
0.0035776191 0.0070837685 0.0005905357
0.0023651388 0.004265951 -6.7092287e-12
0.0040157209 0.00032556482 1.4810491e-05
0.0058821356 0.0030033612 0.0005913265
0.0015709574 0.001904762 7.4674794e-08
0.0069193491 0.0024571563 0.00059056829
0.0028205507 0.0011764682 -7.8662083e-07
0.00051828206 0.0053566787 0.00058868795
0.0026575415 0.0029334885 0.00059052132
0.005062555 0.0072666435 -3.7846658e-07
0.0055228472 0.0072459662 0.00058490742
0.0048684613 0.0045962785 -2.2054424e-07
0.0019058491 0.0071969074 0.00047043632
0.0060363361 0.0012548791 -1.2710377e-08
0.00043832578 0.0033365984 0.00059081241
0.0066431044 0.0021273228 0.00059058995
0.0027212186 0.0040664375 0.0005909662
0.0034481033 0.0074503217 -7.825256e-09
0.0034681677 0.007104944 0.00059052644
0.0074793613 0.0029141759 0.00047551384
0.00642653 0.0037690687 0.00059054221
0.0044460124 0.0066598854 0.00059071783
0.0047012968 0.0024798324 0.00059076486
0.0050418149 0.0061635608 3.7668389e-08
0.0062881266 0.0040825414 -3.5885822e-07
0.0018878444 0.0011037169 0.00059099722
0.0074608144 0.0051336894 0.00053236424
0.0055159996 0.0067664287 -2.3714824e-07
0.0040948549 0.0072429436 -1.1951768e-07
0.00092052406 0.003961815 -1.6422642e-07
0.0063375114 0.0066188644 -5.0842891e-07
0.0021882642 0.0039522946 0.00059111079
0.0007806205 0.006067913 0.00054505095
0.002409647 0.0034020878 0.00059050397
0.0034444099 0.0072152168 0.00059056265
0.0040467358 0.0070059411 -2.5287196e-07
0.006235349 0.0017361236 0.00059068546
0.0048416909 0.001262771 0.00059055979
0.0027657454 0.006726549 0.00059054699
0.0049382877 0.0020038122 0.00059054012
0.0051259701 0.0021295224 -2.4731349e-07
0.0022463205 0.0011728946 -4.5778304e-08
0.0021346002 0.0073304679 0.00023857228
0.0066058859 0.0015786838 3.9079237e-07
0.0014803668 0.0011559647 0.00037178435
0.0050786911 0.0038821353 0.00059063121
0.0025311487 0.001685305 -4.4552852e-08
0.00049804844 0.0046687108 0.00059053057
0.0025964044 0.0045468388 -3.0918596e-07
0.0010413239 0.0064504491 0.00021914473
0.0028903515 0.0059754541 -1.3647787e-07
0.0044794357 0.0022571932 5.0257466e-08
0.0053112302 0.0042978236 0.00059101015
0.0057270108 0.0052504782 0.00059051835
0.0048827222 0.0070806406 -1.4104458e-08
0.007244898 0.0023347889 0.00034149451
0.0073186737 0.003796482 0.00059057388
0.0042649205 0.0046747616 0.00059071422
0.0046838825 0.0031677957 4.6934304e-08
0.0045301388 0.0065867263 0.00059051986
0.0057548606 0.0064173467 0.0005904822
0.004662415 0.0065303468 -5.7399014e-08
0.0058973008 0.0039988998 0.00059050362
0.0075585721 0.0032206913 0.00025869627
0.0061270259 0.0039287177 0.00059063634
0.0038681079 0.0071029267 -3.9031116e-07
0.0028085911 0.0023418437 5.1186628e-08
0.0044916738 0.0071288142 -4.5607757e-07
0.0028525458 0.0039504352 -5.1395272e-08
0.0024002236 0.0052049849 0.00059054559
0.0060333535 0.005622034 0.00059054192
0.00087952963 0.006231294 0.00050975051
0.0040734927 0.0044041583 0.00059075444
0.0058668726 0.0041107102 0.00059053209
0.0062512597 0.0057488242 0.000590568
0.0024241032 0.0058964551 0.00059082755
0.0070593357 0.005137932 0.00059093069
0.0031605186 0.0017575374 0.00059084676
0.0011674662 0.0035108237 -2.2242528e-09
0.0048857359 0.0072940933 -2.314577e-07
0.0017447131 0.0032959576 0.00059107586
0.0024050937 0.0074603604 0.00014791809
0.0028438803 0.00059335103 0.0005904726
0.003132463 0.00081129209 -6.0935912e-07
0.00170654 0.0042904159 -1.7046011e-07
0.0041918126 0.0073896358 -4.4129143e-07
0.0075301314 0.0042184005 0.00058874174
0.0028843367 0.0066701472 -3.6914162e-07
0.0053430866 0.00058725465 7.4503019e-05
0.00015852184 0.0037450311 0.00023748913
0.0021200178 0.0025736168 0.00059112732
0.0014283899 0.0068429373 0.00036132455
0.0020099888 0.0020189192 -1.3508656e-08
0.0043744007 0.0067803948 0.00059093424
0.0053980229 0.0031110852 -1.1040228e-07
0.0056122965 0.00071608461 4.9738668e-05
0.0053358953 0.0066938554 -5.8273957e-07
0.0025518404 0.0011666275 -7.8758097e-07
0.00092967955 0.0040307627 0.00059086864
0.0052262954 0.00077929173 0.00059120415
0.0055891536 0.0047344649 -3.1015286e-08
0.003836445 0.00055320881 0.00059084449
0.0060474202 0.0018652102 5.2483685e-08
0.0028963492 0.0061222673 0.00059056067
0.0022629856 0.0019992911 -2.6406403e-07
0.0070898882 0.005982351 0.00014694044
0.0062841889 0.0054709157 0.00059076172
0.0013157927 0.0027713093 0.00059056823
0.0026513694 0.0024405178 2.5024093e-08
0.0019942038 0.0072415238 7.0661918e-05
0.0052429531 0.0046527516 -4.6707638e-07
0.0015628265 0.0026941183 0.00059092324
0.0050036139 0.0033641194 0.00059052347
0.0039696554 0.00027851833 0.00050759909
0.0040605348 0.000899209 5.7536703e-08
0.0062345029 0.0067871343 1.9688607e-06
0.0025892607 0.0049482784 0.00059084455
0.0022589813 0.0073934947 0.00011118443
0.0017791851 0.0040183812 0.00059098017
0.0061352947 0.0010333782 5.1876679e-05
0.0054439027 0.0015015068 -7.2270403e-08
0.0052791843 0.0034516156 0.00059085176
0.0048255324 0.0028490089 0.00059054495
0.0066882148 0.0050022067 0.00059078872
0.0031502289 0.0025646435 0.00059056305
0.0021604283 0.0071650287 2.2707354e-06
0.0073346356 0.0042355629 -3.6612695e-07
0.0035854441 0.002663559 0.00059083034
0.0074338391 0.0047772066 0.00059161312
0.0032901231 0.002493252 0.0005906244
0.002818347 0.0075520496 4.1403942e-05
0.0061717811 0.0010417585 0.00014336027
0.0017202526 0.0021563426 0.00059064402
0.0015219627 0.0031784715 0.00059107691
0.0032059944 0.0060905409 -2.4059298e-07
0.0029190027 0.0069811586 4.5530996e-08
0.0060285311 0.0066644852 -2.8713728e-07
0.0053965151 0.0026715738 0.00059054227
0.002045715 0.0028378265 0.00059058279
0.005173468 0.0012591806 -4.9484134e-07
0.00053353328 0.0052455985 2.141071e-07
0.00056278741 0.0057104896 0.00046908917
0.0011814276 0.0046448917 -1.0965995e-07
0.0052549457 0.0016714787 9.7430373e-08
0.0051693851 0.0065292045 1.6717896e-08
0.0052965237 0.0037028652 -1.486418e-07
0.0046537323 0.0040227622 0.00059074356
0.00075737131 0.0047952244 0.00059061317
0.0038564212 0.0032005368 0.00059048505
0.0037967865 0.0071823732 0.00059051701
0.007289438 0.0049150614 -1.9984691e-07
0.0047197705 0.0052397121 -2.625818e-08
0.0010813972 0.006481857 8.8060144e-05
0.0060096835 0.0033349921 0.00059090619
0.00068750646 0.0042824415 4.7323251e-08
0.0053775669 0.0059979586 0.0005906474
0.0063692033 0.0068335771 0.0004555136
0.0044515808 0.0011270163 0.00059079734
0.0033362024 0.0055282866 1.3308973e-08
0.0026437703 0.0068091117 0.00059059786
0.0056506884 0.0027065345 0.00059057813
0.0025055727 0.0028253468 4.3586649e-08
0.0074711004 0.0028846625 0.00013943708
0.0022284787 0.0061246357 0.00059051206
0.0064296746 0.0031462549 0.00059061241
0.0026968478 0.0075231814 2.7863252e-05
0.003140043 0.0062396466 -2.3637443e-07
0.0019196774 0.0071731298 5.2513256e-05
0.0020411862 0.0063338755 0.00059053686
0.0033822677 0.0020151671 0.00059058098
0.0057313954 0.0011943309 0.00059052592
0.0076370593 0.0042829085 0.00045469662
0.0064168368 0.0052215611 0.00059053284
0.0055608158 0.00080984068 -6.7238244e-07
0.0054168487 0.0020760908 -1.7654701e-08
0.0056360713 0.002496466 -2.4201956e-08
0.0062057655 0.0047168611 0.00059092214
0.0025847307 0.0019108485 -8.3631257e-08
0.0044022212 0.0029837221 -7.4516123e-08
0.0056578168 0.00071263005 0.00035480587
0.0046808422 0.0027383054 0.00059059449
0.0011443791 0.0024943419 3.6746602e-08
0.00015039893 0.0039634048 0.00050566759
0.0055607087 0.0073819095 0.00045981005
0.0060033966 0.0043780203 0.00059059763
0.00754706 0.0031998374 0.00049501349
0.0040331329 0.0038496475 0.00059069105
0.0032784524 0.0076878993 7.1583891e-05
0.0070021539 0.001920475 0.00034705727
0.0009943092 0.0046905032 0.00059096131
0.0031181504 0.0026885355 0.00059057598
0.0016311966 0.0019907339 0.00059059059
0.0051531093 0.0071886424 0.00059071061
0.0035179504 0.006799777 0.00059053319
0.0047152136 0.0075707054 4.4135013e-06
0.0052481387 0.0022849604 0.00059073546
0.00082047551 0.0024372458 0.00059062149
0.0039440678 0.001243128 0.0005906389
0.005376548 0.0070865988 6.6070385e-08
0.001574008 0.006297763 -6.1530619e-07
0.0016576879 0.0020481443 5.9648526e-09
0.0023671482 0.0019207969 -2.2641643e-07
0.0062575368 0.0037669574 0.00059053261
0.0050389403 0.0059644734 -4.931228e-07
0.0026736467 0.0016548247 0.00059052446
0.00729864 0.0055980245 0.00015244533
0.0067158793 0.0022660478 0.00059051649
0.0032704996 0.0045654732 0.00059092417
0.0068913256 0.0029367639 -3.0127463e-08
0.0029739998 0.0041598263 0.00059051637
0.0060512903 0.0058492762 2.8136942e-08
0.0022908689 0.0051367045 6.9299531e-08
0.0018528452 0.0069835191 -5.4570722e-07
0.0025595725 0.0051317862 0.00059052161
0.006122916 0.0026893215 6.2925913e-08
0.0049458849 0.0074720499 0.00058792863
0.00098721485 0.0040961653 -5.3874214e-07
0.0037211545 0.00027638185 0.00038453881
0.0035834552 0.0064946529 -3.0068304e-07
0.0012139163 0.0014064927 0.00043777903
0.0055125151 0.0071591041 -3.2644536e-07
0.0046433923 0.0060424539 0.00059074431
0.0060984436 0.0041067335 0.00059071206
0.0020429378 0.0036297741 -1.4004662e-07
0.00051602814 0.0026289592 0.00059091375
0.0034427666 0.0041885702 -5.1693291e-07
0.0027900769 0.0031718824 -3.2642302e-07
0.0026290691 0.0042697154 -2.313832e-07
0.00368591 0.0037153715 0.00059089903
0.0029065292 0.0052230945 0.00059083634
0.0037508304 0.003893855 7.0022871e-08
0.0042488235 0.0012204325 0.00059071049
0.0015795063 0.003660168 -2.2516265e-07
0.004969032 0.0028119725 0.00059055816
0.0051278886 0.0046799267 0.00059094315
0.0032125684 0.0077073798 0.00019557512
0.0015317218 0.0066982377 8.5500012e-08
0.0041935099 0.0047419639 0.00059059518
0.0028306353 0.0071180272 -8.6538911e-08
0.0028324598 0.00090830575 0.00059078849
0.0023535418 0.0066603753 0.00059090671
0.0054265456 0.00083704269 -8.523515e-08
0.0032238059 0.0016538134 -5.536632e-07
0.002114862 0.0045606201 -4.9354935e-07
0.0033230186 0.0018845265 -2.9853479e-07
0.006487966 0.0067317644 0.00042484389
0.0051383749 0.0054611107 4.3069446e-09
0.0071422909 0.0024652747 0.00058424025
0.0038329188 0.0048554176 0.00059101649
0.0066433442 0.0052314922 0.00059054838
0.0061919484 0.0042765923 -4.8445344e-08
0.0001724196 0.0036006055 0.00019440708
0.0035891351 0.0036379371 0.00059093628
0.005849123 0.0027526747 0.00059109036
0.0036156594 0.0023991661 0.00059059419
0.0075389892 0.0031395953 0.00039933756
0.0049244477 0.0012023378 0.00059055112
0.0010992376 0.0015271726 0.00024048207
0.002622576 0.0023946969 0.00059075846
0.00621062 0.001816191 2.8500722e-08
0.00027033756 0.0039922106 4.815417e-06
0.0038572971 0.0041855103 0.00059066765
0.0022111943 0.0010318187 3.9433615e-08
0.0068360651 0.0042925789 -3.2101713e-08
0.0021963087 0.0023084988 0.00059114525
0.0053526768 0.0059294379 -9.7794064e-08
0.0063182139 0.0015087237 0.00059061736
0.0038185231 0.004618417 4.5881386e-08
0.0046432032 0.00034822937 0.00042277068
0.004993822 0.0073096999 0.00059087545
0.0063071307 0.0049654087 0.00059099309
0.0028402582 0.001340731 0.00059051072
0.0041315695 0.0058748145 0.00059058593
0.0044821491 0.0063232081 -1.3868711e-07
0.0045166132 0.0048157172 -7.430026e-08
0.0059875296 0.0063455217 0.00059043843
0.0035508426 0.0053486163 -4.3870546e-07
0.0068944036 0.004870486 3.5829608e-08
0.0049141487 0.00045442159 0.00054555474
0.0024459078 0.0036037874 -7.4332966e-08
0.0016847176 0.002230353 -1.8769473e-08
0.0045351451 0.0036300414 -5.0266804e-09
0.0068852268 0.0062842206 0.00036090202
0.0018694833 0.0048491359 -4.868081e-09
0.0020651908 0.0065243696 -2.6345768e-07
0.0032384463 0.0068951342 0.00059048762
0.0051303827 0.0051439321 0.00059063092
0.0031596289 0.006624626 -7.8032713e-08
0.0011000604 0.0062350868 -9.6727653e-08
0.0023938562 0.0045504416 0.00059081172
0.0053899256 0.0072553023 -1.2005924e-07
0.0032992933 0.0036299038 0.00059098151
0.0041485419 0.00033382632 0.00054090325
0.0045188945 0.00032539619 0.00021296403
0.0034965463 0.0023704984 0.00059071666
0.0022675504 0.0060662096 3.5735042e-08
0.0073921075 0.0044114524 -5.4440246e-08
0.0030966597 0.0048786611 2.5566841e-08
0.0065175202 0.0050838352 0.00059050508
0.004255225 0.00069214893 0.00059054577
0.0065543386 0.0024559896 0.0005905414
0.0015776022 0.0036958277 0.00059055997
0.00035955349 0.0051910896 4.5463385e-05
0.0056069554 0.0045826267 0.00059052516
0.0062812106 0.005264956 -4.03714e-08
0.0057627498 0.0023616138 0.00059054291
0.004551365 0.0027626508 -1.6679165e-07
0.0067861206 0.0045052073 -1.607512e-08
0.0066341828 0.0065605673 7.1052011e-05
0.001651549 0.0062725567 0.00059078366
0.0014205542 0.0050539812 8.1757022e-08
0.0072049391 0.0057852161 0.00032832581
0.0037139773 0.0021713821 -2.8007187e-07
0.0057668015 0.0018963197 0.00059047644
0.0028444056 0.0069196294 1.317871e-08
0.0056620627 0.0044040247 -5.7316623e-07
0.0038674555 0.0026734823 0.00059109117
0.0040936237 0.0047061727 0.00059051055
0.0025548071 0.002736364 5.5028451e-08
0.0009455515 0.0018869448 1.8389918e-06
0.004370661 0.0034417098 0.00059054204
0.0020271128 0.0067366725 0.0005908279
0.0021160136 0.0051225265 5.562379e-08
0.00279316 0.0054310281 -5.525439e-07
0.0027501935 0.0047702021 5.1176414e-08
0.0024185602 0.0058733993 -2.8008506e-07
0.0057584178 0.003460336 -1.9527695e-07
0.0041196169 0.0020279889 -2.0461404e-07
0.0052411044 0.007462183 2.7236092e-06
0.0057110437 0.00074235332 0.00043205201
0.0011302353 0.0038403946 0.00059125066
0.0051433477 0.0014590685 7.3596503e-08
0.0045968383 0.0071232305 -9.0811263e-08
0.006978184 0.0061570941 0.00039964801
0.002835307 0.0076166317 0.00015312781
0.0027157741 0.0036319436 -5.1169292e-07
0.002482628 0.0064677405 2.1521918e-09
0.0048850579 0.0029379565 1.4419057e-08
0.00051098422 0.0044084634 -2.2207477e-08
0.0024433671 0.0029179603 4.3334857e-08
0.0031924727 0.0048369202 2.5135382e-08
0.0030122572 0.0063782092 0.00059074222
0.0067902901 0.0050369552 6.7468768e-08
0.0030492782 0.0049423068 0.00059067149
0.0057705319 0.002017614 0.00059048587
0.0071910513 0.004370627 -1.0946594e-07
0.0030502353 0.0021133758 -2.1710594e-07
0.0040693604 0.0022818223 1.4848625e-08
0.00087469665 0.0019614291 1.1228175e-06
0.007008655 0.0059740171 6.1036121e-06
0.0025462429 0.0037964606 0.00059051294
0.0018517186 0.0030177156 0.00059057394
0.0051645688 0.00058342289 0.00058985344
0.0024512911 0.003016541 0.00059060182
0.0046598236 0.0017901551 0.00059054408
0.0045231697 0.0070254141 -4.132061e-07
0.0072252271 0.0052504377 0.00059147843
0.0027954413 0.007605473 0.00035242655
0.0069582355 0.0060674399 1.8452572e-05
0.00020929374 0.0033520083 0.00036002809
0.0055502565 0.0013421493 0.00059063081
0.006699563 0.003007852 0.00059051957
0.0015596728 0.0065465574 0.0005909928
0.0016076362 0.0040608849 0.00059098855
0.0035428791 0.0021889934 0.00059079705
0.0057876832 0.0032028933 0.00059118064
0.0037720075 0.0030171673 0.00059051008
0.004788755 0.0044330042 -1.1831246e-07
0.0066519496 0.0014865752 0.00012349819
0.0014288692 0.0062391832 0.00059099559
0.0039990777 0.0045493534 0.00059051171
0.0045545106 0.00033090694 0.0003251899
0.0036632498 0.0032110338 -3.7655827e-08
0.0051643848 0.0058491998 -4.1900401e-07
0.0071512992 0.0058840737 0.00035413756
0.0013487443 0.003894371 -1.7665252e-07
0.0074507296 0.0036608069 0.00058991538
0.0054425751 0.0016877705 0.00059051742
0.004915975 0.0016500531 4.8365504e-08
0.0046705697 0.00051315496 0.00059109973
0.007179942 0.0058320886 0.00024182678
0.0032250748 0.0050324458 4.0622243e-08
0.0011417043 0.0014898345 0.0001236207
0.0057438812 0.0033805235 0.00059075578
0.0036075246 0.0012770098 0.00059097662
0.0071190298 0.0021042973 0.00041418715
0.0004079905 0.0051567955 0.00055479771
0.0039985273 0.0027128772 -4.4264729e-07
0.0036815025 0.0046493639 1.8651264e-08
0.0029204702 0.0029297124 0.00059079786
0.0045324122 0.003933772 5.7681984e-08
0.0027027274 0.0069541214 -2.4132166e-08
0.0028054405 0.0029609341 0.00059052097
0.0033306971 0.0017480811 -5.9028309e-07
0.0066334587 0.0056100585 0.00059052801
0.0012255394 0.0066337129 0.00011168398
0.0058100419 0.0060716034 0.00059060781
0.0024388081 0.003112867 5.2498454e-08
0.0040355194 0.0051178588 -7.3041724e-07
0.0016041812 0.001147049 0.00058682688
0.0010727235 0.0023545313 5.111141e-08
0.0017347948 0.0019608813 7.2629142e-08
0.0063940762 0.0035674316 0.00059061905
0.0056123859 0.0039995271 0.00059052103
0.0023319479 0.002358973 0.00059117877
0.0019115153 0.0054343133 2.9577336e-08
0.0015341492 0.0033117027 3.189329e-08
0.0015784705 0.0042659584 -3.9176374e-08
0.00096277631 0.0023267979 5.3356295e-08
0.0023156798 0.0034968674 0.00059054093
0.0015275263 0.0054960749 -6.4966954e-08
0.0062102815 0.0055205445 -2.2229512e-08
0.001591193 0.0066814804 0.00059091288
0.0037356827 0.0056717158 0.00059056748
0.005860847 0.0019698902 0.00059051288
0.0043990212 0.0046885191 0.00059100467
0.0045472202 0.00760744 0.00058928505
0.0070630023 0.0035104416 -4.4818071e-07
0.0063240319 0.0059635513 -2.7227489e-07
0.0029796672 0.0014390568 -2.7978189e-07
0.0074972259 0.0044796066 0.0005874224
0.0067022447 0.0037041765 -2.1449091e-09
0.0076266276 0.0044055539 0.00020878836
0.0025275515 0.0058707199 -3.590188e-07
0.00099609676 0.0019929176 -2.5531298e-07
0.0066220346 0.00384979 -5.1908412e-08
0.0012915169 0.0013310091 0.00012190405
0.0061066234 0.0037310224 0.0005905237
0.0023593509 0.002520147 0.00059065066
0.0069680521 0.0022388466 -6.4707274e-07
0.0025203109 0.0038423198 -2.5125058e-07
0.0043994063 0.0063367686 0.0005905439
0.0038807234 0.0075785564 0.00059023406
0.0014241193 0.0028560252 0.00059051363
0.001287038 0.005977625 8.9500505e-09
0.0047677988 0.00062714086 0.00059093145
0.0030670806 0.00445783 0.00059061503
0.0025815873 0.0069503495 1.5310535e-08
0.002866168 0.0037019497 -4.56501e-07
0.0053564738 0.0074752104 0.00036597802
0.003922441 0.0077708727 0.00032202341
0.0029214968 0.00044013737 0.00057339639
0.0040468844 0.0036684924 0.00059062534
0.004071692 0.0065957163 -2.434769e-07
0.00060737634 0.0058181575 0.00030730432
0.0044538616 0.005520103 0.00059080654
0.0023768479 0.00071771682 8.5205074e-06
0.0063384706 0.0068000965 2.406034e-05
0.0025949604 0.0033385861 0.00059052464
0.0061300984 0.0067006266 -3.0753813e-07
0.0014492556 0.0033585583 3.9504524e-08
0.00080504699 0.0037386699 0.00059110031
0.0040684533 0.0056282491 0.00059089629
0.0040965811 0.0052055633 0.00059094763
0.0058968863 0.002762151 5.9717692e-08
0.0027088677 0.0045530912 0.00059062784
0.0049053021 0.0034103191 -1.2084752e-07
0.0043532802 0.00030148961 0.00015265739
0.0043064845 0.0077476208 0.00027570562
0.0053254138 0.0028151539 0.00059057644
0.0031267346 0.0061628544 0.0005907513
0.0057303226 0.0045606061 0.00059053523
0.0039799171 0.0061848913 0.00059059245
0.0050359736 0.0047459998 -3.349391e-07
0.0019739941 0.0068060244 -1.1294519e-07
0.0038294448 0.0022185862 -7.9981483e-08
0.0019380403 0.0035823064 -3.7437747e-08
0.0020743066 0.0049192207 4.3776659e-08
0.0056421426 0.0010522752 0.00059078861
0.0063417749 0.0036476948 5.4454468e-08
0.0037889103 0.0030278054 -8.8549292e-08
0.0006093331 0.0039596427 0.0005907673
0.001444496 0.0025795633 0.00059061829
0.0023201148 0.0044094417 -1.4978308e-07
0.0013650807 0.0014511748 2.9303419e-07
0.0022164087 0.0024346055 0.00059119426
0.0037417009 0.0042797658 0.0005905616
0.0030246668 0.0055959863 0.00059092906
0.0051816436 0.0027115159 -1.4359708e-08
0.0058268029 0.0068218075 -1.8740909e-07
0.0042948201 0.0075953971 9.3110106e-07
0.0067231921 0.0064535677 0.00049701059
0.0054276497 0.0032751437 0.00059083384
0.000613946 0.0040214285 -6.304267e-08
0.0045430828 0.00298247 0.00059052877
0.0036955071 0.0063788067 -1.3954863e-07
0.0048048696 0.0040202569 0.000590574
0.0056386027 0.0067679724 0.00059102004
0.0055276435 0.0061458955 -8.6912259e-08
0.0030265274 0.0063026422 -4.065173e-07
0.0025931068 0.0051646614 -1.5138265e-07
0.0066548767 0.0044814385 0.00059055525
0.0045402558 0.0032277696 5.6360481e-08
0.0016655072 0.007035099 0.00046957715
0.00524823 0.0065970705 0.00059051078
0.0041881381 0.00028436698 0.0003453898
0.0015287285 0.0030388355 -3.1941781e-07
0.0020167732 0.0072652539 0.00025510445
0.0052705538 0.0006306069 0.00058476755
0.0060886811 0.0066674482 0.00059061102
0.00061770581 0.0031711303 0.00059059751
0.0031701038 0.0026544845 7.4783635e-08
0.0058783102 0.0021644509 0.0005905304
0.0059477109 0.0014152442 0.00059084856
0.0019534735 0.004435929 -4.1866619e-07
0.0035253041 0.0066132592 -1.9841536e-07
0.0057085049 0.0031225947 0.00059084699
0.00058050506 0.002272289 0.00047929055
0.0043395218 0.0056109158 0.00059083995
0.0013718893 0.0020126945 1.4198892e-08
0.0063751731 0.002922222 -4.9518565e-07
0.0074116359 0.0038293274 -3.7895944e-07
0.0023544068 0.0062137535 0.00059053226
0.0028275521 0.0011392189 0.00059059
0.0065363315 0.006046115 -2.307529e-07
0.0066455412 0.003116278 -5.0636424e-07
0.0064965584 0.0016928231 -5.5125517e-09
0.0051026186 0.0031858487 0.00059052597
0.0031931186 0.00067495124 0.00059058645
0.0016930606 0.0026524293 -1.4680511e-07
0.0049707969 0.0069899666 0.00059050915
0.0037699146 0.00028337605 0.00049087667
0.0062054209 0.0021651529 0.00059076282
0.0071644452 0.0051084952 0.00059101341
0.0052226507 0.0034486752 -3.4742462e-07
0.002718199 0.0021913887 0.00059056102
0.0052870722 0.0052830013 -1.6272654e-07
0.0019426289 0.0072202142 0.00031879556
0.0036838066 0.0072044013 -3.1878093e-07
0.002472287 0.0012670426 0.00059082435
0.0036103099 0.0077598277 0.00019685968
0.0033234756 0.005138055 0.0005907797
0.004437583 0.0057299659 0.00059052889
0.00070652348 0.0034039849 -4.2989106e-07
0.006428259 0.0034474705 6.7485672e-08
0.0030346687 0.0004337476 0.00058307347
0.0045242808 0.0030207853 -6.605908e-08
0.0034217751 0.0026812062 3.7749096e-08
0.0047176899 0.00298669 2.9048067e-08
0.0032676023 0.0039725737 -3.4143262e-08
0.00063603942 0.0040846048 0.00059061073
0.0073811389 0.0026635036 0.00049026258
0.0021219561 0.00071951345 0.00026488269
0.0039387406 0.0068507469 -6.4563181e-07
0.0057664672 0.0049179648 0.0005906134
0.0023181199 0.0030497434 0.00059055426
0.0012468323 0.0038405235 0.00059118203
0.0071036275 0.0049385829 0.0005907662
0.0025156955 0.0054173176 -7.5110813e-07
0.0042117238 0.0033063511 -1.8343955e-07
0.0043069464 0.0065743942 -1.9633507e-08
0.0057511874 0.0027943812 0.0005907907
0.003594853 0.00056659675 0.00059064053
0.004397227 0.0042223632 4.6125525e-08
0.0063066301 0.0055128131 -6.3076982e-08
0.0044026757 0.0019237582 0.00059056754
0.005946469 0.0013809084 3.8109018e-08
0.0068807374 0.0017518125 0.00030596455
0.0016765913 0.0058783405 0.00059059396
0.0065133581 0.0031921505 -6.045733e-07
0.00057155237 0.0029064058 0.00059095758
0.0019458344 0.0060870191 -1.2362361e-07
0.0031635999 0.0011101703 -2.210416e-07
0.0061263079 0.0068314672 -4.5668114e-07
0.00085615221 0.0029149065 -3.3279065e-07
0.0043780068 0.0023443815 2.2702409e-08
0.0029491489 0.0035301056 0.000590479
0.0065838085 0.0029422017 -6.9315939e-07
0.0019522293 0.0040050796 -3.965836e-07
0.00475829 0.0069148885 0.00059051998
0.0069515524 0.0032203787 6.8038659e-08
0.00055249047 0.0030209885 -3.3902117e-07
0.0039717904 0.0077470979 7.1755239e-05
0.0028237377 0.0070897089 0.00059050095
0.0068526743 0.0019524333 7.5944916e-07
0.0072084093 0.0033178681 -2.6035096e-07
0.0046127653 0.0036689846 0.00059061946
0.0042652893 0.0051877843 -4.9199554e-07
0.0023596343 0.0015805927 -4.160319e-07
0.0073228776 0.005100247 0.00059053407
0.0018900224 0.0023199418 5.2858148e-08
0.0043309294 0.000298625 0.00040282801
0.0016122329 0.0010495714 0.0004191481
0.0012278971 0.0048679272 0.00059054967
0.0065155458 0.0055088173 0.00059052196
0.0047410531 0.0062536844 0.0005908868
0.0035822862 0.0060888561 0.00059059612
0.0021340777 0.0041440693 -4.4817307e-07
0.00074058434 0.0023732397 0.00058942096
0.0038319593 0.0049209511 -6.228878e-07
0.0016402091 0.0027605474 0.00059115549
0.0043826466 0.0075358143 -2.1960908e-07
0.0019299474 0.0059650787 0.00059068046
0.00054142484 0.0029095467 -8.991379e-08
0.0054933284 0.0043179947 -3.3260886e-07
0.0075238585 0.0030714918 0.00032058306
0.0020714258 0.00076259911 9.2084265e-05
0.001164323 0.0054175705 0.00059109577
0.0061893486 0.0040523838 -3.758542e-07
0.0057780836 0.0039416901 0.00059048168
0.0075188396 0.0034757203 0.00058723602
0.0076442114 0.0039287559 0.00021353649
0.0030078781 0.0047228923 0.0005908024
0.0036872881 0.0023259341 -2.459096e-07
0.0018449953 0.0012658777 8.4670972e-08
0.0060082069 0.0052787722 0.00059085374
0.0068220827 0.0022766956 0.00059076701
0.001261535 0.0066817328 0.00046523992
0.0056493864 0.0013234921 0.00059091032
0.0030107882 0.0040693264 0.00059049897
0.0066376245 0.0038145147 0.00059106207
0.00505275 0.0062258681 0.00059110776
0.0005216017 0.0040954011 0.00059062167
0.0056966632 0.0058862278 -6.1163895e-08
0.00092295156 0.0057274732 0.00059079879
0.0057436028 0.0054618586 4.0159893e-08
0.001531627 0.0069304332 0.00032264326
0.0053761131 0.0064523453 -5.4167248e-07
0.0038457534 0.0066339565 0.0005907045
0.0037103842 0.0020442114 -3.3149249e-07
0.00435847 0.0068509732 -6.5115536e-08
0.005106383 0.0019659707 0.00059050991
0.0022942529 0.00063272228 0.00040755188
0.0039740391 0.00085641886 2.6182525e-08
0.0037109859 0.0053063314 -5.9867807e-07
0.0045150034 0.0055706105 -2.6916328e-07
0.0017859781 0.0030540039 1.3706298e-08
0.0049644453 0.0046450351 -3.8772882e-07
0.005814197 0.0036397348 0.00059054163
0.0020544766 0.0012011139 0.0005907283
0.0030167173 0.0022162988 -9.4161486e-08
0.0020445359 0.002589307 -2.2400604e-09
0.0013417832 0.00598503 0.00059058651
0.0071296403 0.0040137749 -4.9666806e-08
0.0011565863 0.0052622501 0.00059078436
0.004164224 0.0059551098 -4.8162002e-07
0.0029933751 0.0038609242 -4.8985112e-07
0.003865514 0.0037376841 0.00059069518
0.0068284022 0.0063349484 0.00049156079
0.0010883749 0.0021490541 7.7609855e-08
0.0072901142 0.0041511459 -2.8460718e-07
0.0033856828 0.0067890263 -4.5570705e-08
0.0036169344 0.00037952556 3.6163632e-07
0.0012360298 0.006059668 0.00059049466
0.004608965 0.00086949131 0.00059070438
0.00082811451 0.0041197506 0.00059058162
0.0004804974 0.0024780789 0.00024324011
0.00083280326 0.0053566252 -2.2362064e-08
0.0047050123 0.0076763332 0.00051030633
0.0043297624 0.0043331734 -6.8417854e-08
0.0051403176 0.0023596864 9.573105e-09
0.0047053215 0.0003609132 0.00032301786
0.0060241269 0.0016825425 0.00059066666
0.0021619089 0.0046466701 0.00059082941
0.0050444258 0.0022295611 -3.3267231e-08
0.002672578 0.0053808615 0.00059089094
0.0029947378 0.000922526 -4.7397151e-07
0.0031597374 0.0033204153 -5.3931149e-07
0.0075522792 0.003876741 1.2368067e-06
0.0069516427 0.0033343541 -1.6159871e-07
0.0023577905 0.0014628158 -5.4456342e-07
0.0031234312 0.0025202476 3.5459738e-08
0.0016122545 0.0023875081 -1.3876085e-08
0.0047681243 0.0076605305 0.0004344357
0.0062364042 0.0066176536 0.00059055258
0.0067179012 0.0051198113 5.5545264e-08
0.0065355157 0.0039501279 4.2819423e-08
0.0018001861 0.0052155415 -1.6007544e-07
0.0073181591 0.0033015131 0.00059069641
0.0023893777 0.0040197903 0.0005908137
0.0048822863 0.0050712321 -9.1446267e-08
0.0026309851 0.0012206417 -8.1961224e-07
0.0055593387 0.0023714628 -4.3496009e-08
0.0066918801 0.0058417199 -2.7359309e-07
0.0032727106 0.0021222767 0.00059065514
0.00368626 0.0015313603 -1.6376183e-07
0.0053987671 0.0023289109 0.0005904843
0.0031255011 0.0052806847 0.00059067237
0.0064317617 0.0056301937 -1.1454905e-07
0.0063117095 0.0062818709 0.00059061259
0.0028206764 0.00182132 -4.3579135e-08
0.0017069542 0.0015847957 6.9677327e-08
0.002097507 0.0031079121 0.00059052068
0.0058999215 0.0038643994 -1.5790187e-07
0.0043332572 0.00043637439 0.00058951497
0.0037654843 0.0047259005 -5.3420212e-08
0.0038359701 0.0068456563 0.00059069914
0.0056586959 0.0073309308 0.00032580661
0.0041780504 0.0020582478 0.00059090345
0.0042031915 0.0072578737 -2.7871653e-07
0.0056337938 0.0044206255 0.00059052167
0.0015913085 0.0018048745 0.00059050677
0.0032207053 0.0034135124 -4.6588679e-07
0.0047490424 0.0064867851 -2.8216402e-08
0.0020805346 0.0053171022 3.9279296e-08
0.0043101194 0.0010767832 0.00059112429
0.0072428449 0.0026208747 1.0488283e-06
0.00096958451 0.002920965 -1.1624224e-07
0.00023992056 0.0048458041 0.00038324023
0.0013839683 0.0049539525 0.00059071265
0.001539746 0.0012216653 0.00059117062
0.006612265 0.0063709342 0.00059062842
0.0019204699 0.005647758 3.2959939e-08
0.003215543 0.007488057 -6.4498344e-08
0.0037289085 0.0005116227 0.00059098151
0.0037386504 0.0035352909 -4.7030602e-07
0.0062195668 0.0016587401 -7.316541e-08
0.0057193446 0.0020106118 -1.2641017e-07
0.0038991075 0.0036138927 0.00059060543
0.0050720102 0.0073810141 0.00059108209
0.00051469111 0.0034514044 -1.0366169e-07
0.0046254396 0.0016745257 0.0005905524
0.0025874977 0.0020237875 -7.3586803e-09
0.0033560824 0.0024058458 -2.9227429e-08
0.0044449172 0.0069609713 -2.224004e-07
0.0049396781 0.0065342234 9.59351e-09
0.0035976013 0.0024402353 -2.4141278e-07
0.0020273626 0.0071648029 8.5163583e-06
0.0073275971 0.0033188015 -2.9002047e-07
0.0025872535 0.0022213885 -2.6195204e-08
0.0011046859 0.0057865167 -6.5993987e-08
0.005610988 0.0049445955 0.00059065939
0.0012445746 0.0038217658 -8.1759154e-08
0.0054468205 0.00070551317 1.7621882e-05
0.0046700174 0.0046254788 -5.2752608e-08
0.0062090508 0.0069449395 0.00054410339
0.0029457873 0.0044220346 -1.2252417e-08
0.0057473574 0.0072799111 0.00043700103
0.0070529971 0.0040183766 0.0005905357
0.0034965049 0.0034386157 0.00059086818
0.0013059047 0.0046762172 0.00059129897
0.002881337 0.0067985104 -2.603538e-07
0.0048265103 0.0055850088 -2.2677276e-07
0.0027261425 0.0016896434 5.9443458e-08
0.0039851204 0.0016409394 0.0005907361
0.0010809109 0.006495676 0.00035863841
0.001958051 0.002509278 3.1375979e-08
0.0043469439 0.0053519998 0.00059101486
0.0028357047 0.004711878 5.5060564e-08
0.0076227044 0.0044368152 0.00032580004
0.0071538631 0.00273413 0.00059047958
0.0047240662 0.0049470142 7.0777737e-08
0.0038098218 0.0074968203 0.00059077522
0.0049054441 0.0021792192 4.2981245e-08
0.0068358895 0.006161863 4.7640369e-06
0.00033850141 0.0052038836 0.00046055435
0.001900788 0.0053122956 0.00059061463
0.0025740014 0.005852594 0.00059062254
0.0002695751 0.0030933633 0.00042443437
0.0013291104 0.0064401804 -2.5236039e-07
0.0041567436 0.0063412427 -8.8955275e-08
0.00068173528 0.0021558774 4.1548217e-05
0.00083243684 0.0046936786 0.0005908719
0.0049857101 0.0037510607 0.00059052382
0.0065790927 0.0066413842 0.00017776743
0.002657182 0.005195661 0.0005907201
0.0064848075 0.0017924006 0.00059064239
0.0055456329 0.0018979119 0.00059050974
0.0069079553 0.0057001552 0.00059089035
0.0060278354 0.00098384568 3.908982e-05
0.0031739201 0.0041098166 0.00059062958
0.0064691734 0.0020235686 0.00059096952
0.00061511289 0.0058330437 0.00043843003
0.0059716855 0.0022881667 0.00059050461
0.0039099455 0.0066279611 -6.078925e-07
0.0058740485 0.0052772611 0.00059055694
0.0029811871 0.0064701233 0.00059082208
0.0031857889 0.00099621364 -3.6833742e-07
0.0014553731 0.0017564698 0.00059046678
0.0043509998 0.0031863272 4.9523116e-08
0.0070652561 0.0020169669 0.00018109607
0.0011310673 0.0055874945 0.00059101079
0.0017792654 0.0010414408 0.00058653991
0.0014965236 0.0039431578 0.00059072184
0.0023856231 0.0057325838 -4.6520711e-07
0.0045549627 0.00571302 0.0005905205
0.0029073101 0.0070277094 0.0005905283
0.0023030979 0.0033006982 0.00059056882
0.0040068561 0.0031628131 0.00059045263
0.0034266659 0.0035901871 0.00059114484
0.0038499874 0.0074625062 -6.4791465e-07
0.0020033799 0.0027636439 1.0843057e-08
0.0055881981 0.0020882273 0.00059057109
0.0043947566 0.0069116484 0.00059070863
0.0064896494 0.0060633388 0.00059051794
0.0044155619 0.0030897527 0.00059057609
0.0029486793 0.0041591255 -9.7013526e-08
0.0063430052 0.0013612175 0.00059140153
0.00031409523 0.0029188299 0.00023098815
0.0042370437 0.0033925395 0.00059064012
0.0016126966 0.0069945622 0.00024312235
0.00048549013 0.0039573614 0.00059079495
0.0021242127 0.00129782 2.8102034e-08
0.0040945229 0.0012546332 8.6718842e-08
0.0050580753 0.0071561257 -2.8838734e-08
0.0038882445 0.0040166057 1.1558363e-08
0.0050962511 0.0012402838 0.00059067976
0.0051077525 0.0021736349 0.00059086253
0.0060749208 0.0022115072 0.00059070135
0.0012288409 0.0046046046 0.00059118477
0.0012169997 0.0022299204 6.9878865e-08
0.0034172593 0.0077391863 0.00036654682
0.0056053838 0.0030756581 0.00059057324
0.0041537299 0.0075293048 0.00059071556
0.0013553976 0.0013191024 4.8363006e-05
0.0040341341 0.0069926921 0.00059080572
0.0023580259 0.006140322 -1.0069996e-08
0.00070926733 0.0058889776 0.00058393605
0.0011342337 0.0048272517 0.00059054658
0.0034326906 0.00030267984 0.00043843329
0.0036371141 0.0018752879 0.0005907123
0.00025654817 0.0031633191 0.00011839861
0.0067055798 0.0045887348 0.00059062947
0.0031148021 0.0043012081 7.5015727e-08
0.00094304292 0.0063280421 0.00029436342
0.0049357424 0.0038407659 -2.578453e-07
0.003328281 0.0039420254 0.00059059059
0.00084349391 0.0055154734 0.00059068296
0.0074365675 0.0027865395 0.00029662668
0.0041521061 0.00028388636 0.00044233032
0.0035283838 0.00190301 0.00059062726
0.005504421 0.0049457923 6.9782537e-08
0.0060725329 0.0062168515 -4.4270462e-07
0.0071128882 0.0033082273 -1.9281997e-07
0.0019685789 0.0022463531 3.2152602e-08
0.0059177959 0.0032566267 0.00059111312
0.0061439415 0.0010204831 0.00036274831
0.005725529 0.0065690777 -1.8794114e-07
0.00049822737 0.0024378097 0.0001544681
0.0045711691 0.00050578668 0.00059100013
0.0018152713 0.0018275005 -4.3262958e-08
0.0048163729 0.00062996813 -7.6998191e-08
0.0030455971 0.0062693902 0.00059067406
0.0018423882 0.002140346 0.00059093756
0.0073202658 0.0039829281 0.00059057889
0.0019571322 0.0035886234 0.00059052446
0.0063371835 0.0022144087 -4.1064797e-07
0.0042042048 0.0072655082 0.00059059053
0.0021950963 0.0044566635 -5.9812379e-07
0.00089605723 0.0060448446 2.5524585e-06
0.0060894899 0.0039756559 -1.0207143e-07
0.0018855813 0.0056533203 0.00059054611
0.0032949233 0.0063049137 0.00059077935
0.0051052207 0.0019811497 -6.7446756e-08
0.0013103875 0.0046492326 -2.1228642e-07
0.0012920555 0.0049929284 5.0666415e-08
0.0020798242 0.0073011573 0.0003223533
0.0061454154 0.0070211189 0.00019127749
0.0045800004 0.0041831094 0.00059056451
0.0022381737 0.0031582599 0.00059053447
0.0035323417 0.0020518752 -2.4477544e-07
0.00017583139 0.0044202628 0.00050741807
0.0029346712 0.0042738752 -1.7890544e-08
0.00052887143 0.002386255 0.00046434268
0.0073028062 0.002452645 0.00039824456
0.0059786835 0.0071400008 0.00033934379
0.005788431 0.0021235875 0.00059048634
0.00540704 0.0014648344 0.00059055793
0.0038389969 0.0015767786 -2.2956505e-07
0.0027686905 0.00070738496 -1.7723619e-07
0.0055681649 0.0046297964 -8.4284203e-08
0.0018455973 0.0016380692 -3.98712e-09
0.0016572434 0.0054723918 -1.7276967e-08
0.0063894526 0.0068221148 0.0002189912
0.0042647999 0.002667004 0.00059054163
0.0060837353 0.0032636714 6.0568823e-08
0.0029294954 0.0076435897 0.00033666118
0.0033176057 0.0008280215 0.00059053442
0.0036365043 0.0041159499 -4.534412e-07
0.0046859155 0.0011033617 0.00059065339
0.0034414565 0.0040280847 0.00059049495
0.00045929692 0.0032285149 0.00059070496
0.00068717031 0.0024901016 0.00059091166
0.004986661 0.0055354303 0.00059068517
0.0035827695 0.0017449831 -6.698076e-07
0.0043474394 0.0032722652 0.00059057662
0.0014410636 0.0039464254 -3.3567321e-07
0.0043131704 0.0061217975 -2.4538224e-07
0.0012742953 0.0063577043 0.00059084955
0.003155719 0.0045619411 -1.7360756e-07
0.0026150607 0.002100761 0.00059056777
0.0075152121 0.0030580829 0.00050511578
0.0056862151 0.0035448547 -4.8799825e-07
0.0034129142 0.0048303585 0.00059121836
0.002766039 0.0040481519 -4.65898e-08
0.004599384 0.002827798 0.00059057167
0.0066413549 0.0033788963 -6.2458589e-08
0.0076301466 0.0036794059 0.00027360767
0.001837044 0.0026943346 -6.6067834e-08
0.0049393908 0.005880537 -5.4007938e-07
0.0052544135 0.005060052 -2.0072649e-07
0.0055755102 0.0059678243 0.00059078174
0.00077564281 0.0049864314 -1.6526039e-07
0.0035958113 0.0025220625 0.00059061969
0.0011309338 0.0025995537 0.00059086818
0.0057589398 0.0046786442 0.00059056625
0.002797178 0.0062120408 -3.8931574e-07
0.0032628488 0.0050629405 0.00059072353
0.0011933994 0.0058860937 1.5426185e-08
0.0047079218 0.0068783509 -3.3819049e-08
0.00091393624 0.0048513706 -3.491744e-07
0.0036765055 0.007655181 0.00058526773
0.0032198508 0.0031842953 -3.393437e-07
0.0025178324 0.0060251406 0.00059084274
0.0020255109 0.0051670573 4.4378599e-08
0.0009569205 0.0063482509 0.00041766197
0.00036713155 0.0052807108 0.00011354982
0.0022474648 0.0063207746 0.00059051882
0.0053071766 0.0070195612 3.4672631e-08
0.0055702017 0.006341435 0.00059058744
0.0038718882 0.006490719 -3.5424026e-07
0.0053589283 0.00071146083 0.00058920786
0.0002618221 0.0037214842 0.00058930274
0.0047202799 0.0020756363 -1.4889191e-07
0.0019835979 0.006448647 -4.9716539e-07
0.0049506081 0.00069554418 0.0005909332
0.0036099374 0.0056103049 -4.9986965e-10
0.0033151996 0.001550717 -3.1350555e-07
0.00088353961 0.0017930464 0.00018225718
0.0015550999 0.0053042816 0.00059080822
0.0047122343 0.0021717148 -2.8509753e-08
0.0050710854 0.0049393675 0.00059061253
0.0062921969 0.0069062402 0.00013223881
0.0035369983 0.0042136502 -5.9477418e-07
0.006281985 0.0057544713 1.3999184e-08
0.0059483666 0.0044769561 -2.7377115e-07
0.0027279367 0.00082780828 -3.9182449e-08
0.0071692918 0.0028287619 0.0005909272
0.0072657373 0.0023765524 0.00019911978
0.0051922379 0.0071637323 -3.7172541e-08
0.0073994189 0.0040049613 -2.1848099e-07
0.0034360513 0.0066569694 -8.1085595e-08
0.0064769536 0.0045169266 0.0005904935
0.0022472604 0.0057701431 0.00059055386
0.0039334502 0.0018151684 0.00059063995
0.0032520038 0.002449339 -3.0883413e-08
0.0013688904 0.0045204735 -2.7387642e-07
0.0057367813 0.0056472532 5.132792e-08
0.0067555998 0.002149289 0.0005906446
0.0028624057 0.0053445091 -3.3270194e-07
0.0053984746 0.0063240211 0.00059094559
0.0015547052 0.0039282343 -2.9089944e-07
0.0017175621 0.0039794138 -1.2773586e-07
0.0022184073 0.0016064016 -2.8389323e-07
0.0073098987 0.0054222303 1.6439863e-05
0.0052079419 0.0058836048 0.00059049856
0.0018398903 0.0022089332 3.2182772e-08
0.0020000387 0.00080192857 0.00052738679
0.0020948972 0.00155632 0.00059108681
0.0058704517 0.0063995444 0.00059046393
0.0054816934 0.0019364039 -2.4327701e-07
0.00089732168 0.0018596513 0.0005571504
0.0012907475 0.0052640992 4.809499e-09
0.0072350274 0.0041582123 0.000590574
0.0009080419 0.0029104694 0.0005908598
0.0047420328 0.0011886145 0.00059074775
0.0049871323 0.0020830946 -6.7094078e-08
0.0057683107 0.0060274503 -5.2451973e-08
0.0029041949 0.0025974791 0.00059076183
0.0029786262 0.0054175048 -1.9904012e-07
0.0039849384 0.0048039439 0.00059083448
0.0010870987 0.0064897984 0.00052758929
0.0020192543 0.001759726 -2.4587595e-07
0.003786426 0.0059143244 -6.7275709e-09
0.0062567932 0.0046444265 -1.0919248e-08
0.0043974482 0.003540349 3.2552446e-08
0.0035816627 0.0044796085 0.0005910105
0.0071008378 0.0030457948 5.7070174e-08
0.0042201332 0.0041722199 -4.2020321e-09
0.0072139595 0.0034058557 0.00059063849
0.0047988198 0.0070923278 0.00059067248
0.0042186659 0.0013595145 -1.0171885e-07
0.0070937299 0.0059804344 0.00036898151
0.0041247518 0.0043703807 -2.8954133e-07
0.0058974754 0.0017003044 5.1336919e-08
0.0076221931 0.0040158061 0.00053871906
0.0055031017 0.0074090371 0.00022175533
0.0075021386 0.005032463 0.00038018977
0.0055316244 0.0015916867 0.00059052993
0.0064965403 0.0013241592 6.8963876e-05
0.00070108828 0.0020611219 0.00034565118
0.0034203869 0.0059070555 -2.7423095e-08
0.0037946277 0.0066686221 -5.9149431e-07
0.0027765215 0.00071389583 0.00059068098
0.005244622 0.0037518202 0.00059063878
0.0021946228 0.0052325712 0.0005905932
0.0020289023 0.0046495721 0.00059056666
0.0052767871 0.0021227994 -1.8958436e-07
0.0053446922 0.0018256358 0.00059050095
0.0023630115 0.00060882949 0.00012658586
0.007180728 0.0035079932 0.00059054961
0.0019476409 0.0012796654 6.75549e-08
0.0024112849 0.0068156347 0.0005910148
0.00034310794 0.0033865666 0.00059074344
0.0038760342 0.0024963112 1.3803915e-08
0.00090980518 0.0023375661 0.00059051393
0.0025556483 0.0026195021 6.6437416e-08
0.0022615609 0.0029210569 5.4253341e-08
0.0036226367 0.0044078999 -2.1461574e-07
0.0036057113 0.0075527709 0.00059152895
0.0069671348 0.0019847611 0.00056666118
0.0021736398 0.0026005977 3.8798042e-08
0.0044615357 0.0025542793 1.3707986e-08
0.0044528097 0.0074526495 3.338755e-11
0.0036597021 0.00046953684 -6.3219466e-07
0.0026993367 0.0039140261 -9.6489066e-09
0.0019096705 0.0061714612 0.00059056666
0.00067635567 0.0045727375 -1.7099931e-07
0.00056130282 0.0042218356 5.1602385e-09
0.0060935509 0.0059074168 0.00059051323
0.0073415339 0.0031724174 -3.4522483e-07
0.0019022035 0.0062538129 -5.8082986e-07
0.0059326016 0.003394221 0.00059074216
0.0069266018 0.0059934328 0.00058505998
0.0027336723 0.0068331924 -2.016357e-07
0.0062975311 0.0059924782 0.0005905687
0.00079133402 0.0019223788 0.00018340649
0.0055077258 0.003972895 0.00059052021
0.0036354386 0.0030086504 0.00059080118
0.0023024215 0.0047646742 -8.7470539e-08
0.0047335816 0.00750018 0.00058785296
0.0031297228 0.0029916405 -1.1265814e-07
0.0042704069 0.0068629393 0.00059047469
0.0013328671 0.0028873598 -8.9324303e-08
0.0071393019 0.0025880672 -4.7505978e-07
0.00063529477 0.0057835612 2.3360855e-05
0.00059758406 0.0047647995 -3.7880861e-07
0.0022586079 0.0019447617 0.00059072755
0.004801691 0.0058644689 -5.4316462e-07
0.0042125611 0.0068496442 -3.3638989e-07
0.0024276208 0.0032832359 0.00059048814
0.0047214627 0.00042480117 1.741796e-05
0.0037690778 0.0019594617 -2.9214101e-07
0.0018821131 0.0059864866 -6.5331271e-08
0.0069492459 0.0036632237 -4.1654939e-08
0.0022438401 0.0014987354 0.0005909985
0.0041460949 0.0048342333 -1.2877261e-07
0.0028760796 0.0029906491 -9.9071976e-08
0.00095266849 0.0031099229 0.00059093058
0.0021049208 0.0065532438 0.00059064984
0.0030087596 0.0075362474 8.6248119e-06
0.005155419 0.00048924237 0.00017626661
0.0032375257 0.0016424174 0.00059059449
0.0056526223 0.0073272488 6.9969494e-05
0.0033857822 0.0050493656 0.00059099088
0.00027030896 0.0031805125 0.00052271673
0.0075878766 0.0034453478 0.00052352966
0.00097902701 0.0032104945 0.00059073779
0.0033573278 0.00033579991 0.00052771263
0.0026678082 0.0029542083 -9.1299313e-08
0.0045146556 0.0042188922 4.8532534e-09
0.0042962288 0.0057594669 0.00059078017
0.0065551046 0.0032105439 0.0005905634
0.0036798583 0.0014019092 8.204708e-08
0.0071366951 0.0042167101 0.00059052673
0.0050984174 0.0069220192 0.00059054687
0.0058754417 0.0054365713 5.5793898e-08
0.0076198671 0.004273308 6.0234142e-05
0.0057827299 0.0016923294 5.8022035e-08
0.00513857 0.0075589167 0.00028591164
0.0028119793 0.0061056553 -4.8271306e-07
0.0019976553 0.0053091026 0.00059064274
0.0020977387 0.0040564495 0.00059113343
0.00063461257 0.0057589808 0.00057513407
0.0022341646 0.0021956225 0.00059113116
0.0074378159 0.004389273 0.00059103908
0.0056552785 0.0071647521 -2.803622e-07
0.0068093836 0.0016673375 0.00020399257
0.00317222 0.0067519578 -4.7122967e-08
0.0072836136 0.0056036972 0.00055923848
0.0030462854 0.0043033343 0.00059058098
0.0047831899 0.0033042643 -2.3582251e-07
0.0014191237 0.0043769497 0.00059131737
0.003901893 0.0043165088 0.00059069868
0.0013948857 0.0068130223 0.00026472178
0.0044278945 0.0075514996 0.00059120654
0.0017521153 0.006466608 0.00059105433
0.0025236011 0.0022287304 0.00059083849
0.0033115034 0.0051788264 -9.4018784e-09
0.0049162591 0.007178552 -6.8652582e-08
0.0049878485 0.0053713224 -1.0569005e-07
0.0029368137 0.0055121174 0.00059072155
0.004870032 0.0062564272 -2.3025359e-07
0.0025562777 0.0034068632 2.604507e-08
0.00083836727 0.0037464851 5.218904e-09
0.003295362 0.0053326171 -1.3469743e-07
0.0042136875 0.003964127 0.00059053459
0.0039665252 0.0024631883 1.4815147e-08
0.0029812057 0.0055551017 -2.3420779e-07
0.0038558959 0.0033248542 -2.983403e-07
0.0039526485 0.0040880754 4.1863927e-08
0.00086398021 0.0031521036 -1.2231219e-07
0.0028139162 0.0014540561 0.00059052603
0.0020585626 0.0038251742 -1.9306287e-07
0.0072332826 0.0030308971 -2.5907332e-07
0.0029667935 0.00062332011 0.00059084524
0.006671058 0.0065436047 0.00040219224
0.0015658786 0.0011188266 6.1472019e-05
0.0037851145 0.0054498264 -3.1438924e-07
0.0058871983 0.0016346585 0.00059094653
0.00026314965 0.004054225 0.00058973883
0.0022632079 0.0046482435 0.00059105508
0.0042860759 0.0037824234 5.5214752e-08
0.0017417612 0.0066532111 0.0005909481
0.0059619695 0.0042629237 0.00059051713
0.0019856999 0.0026650985 -1.202892e-07
0.001371422 0.0012574286 0.00011980119
0.0053641978 0.0056103808 0.00059070322
0.0064027747 0.0012330035 0.00025048645
0.00055367599 0.003624012 0.00059054908
0.0020967876 0.0069526732 0.00059062167
0.0025296211 0.0010275546 0.00059107208
0.0055623935 0.0058150738 0.00059056201
0.0035260194 0.0077349818 0.00011478338
0.0044230507 0.0059506879 0.00059060176
0.003354291 0.0014060828 0.00059072621
0.0027930171 0.0057811271 -2.3830947e-07
0.0013905215 0.0051664971 0.0005909077
0.0075382539 0.0041128793 0.00058354595
0.0050209034 0.0048477859 0.0005905765
0.0056185266 0.0014807736 0.00059079577
0.0040793912 0.0047462392 -2.5787489e-07
0.00050192903 0.003055434 0.00059008069
0.0063018678 0.00243809 0.00059092505
0.002419587 0.0050710808 5.2417999e-08
0.0050178496 0.0005474296 4.5514012e-06
0.005771467 0.0027612485 5.5142653e-08
0.0014882248 0.0059481477 0.00059059018
0.0017937321 0.001120805 3.6141506e-07
0.0053030504 0.0013600116 0.00059065362
0.00072071503 0.0032507661 -3.1956321e-07
0.0050024223 0.002548106 0.00059056102
0.0058031492 0.0015413796 0.00059112569
0.0041133873 0.0026483035 0.00059059961
0.0076006232 0.0045486833 7.4325668e-05
0.0054848436 0.005520015 -3.5463902e-08
0.005583921 0.0063088443 -4.1871064e-07
0.00349398 0.0020208273 0.00059060857
0.0035224035 0.00061341975 -5.4796097e-08
0.0020435082 0.0047711339 -2.1764594e-08
0.0046464819 0.0008151615 5.7560101e-10
0.0049664942 0.0025620016 8.5064734e-08
0.0025098557 0.0040549329 0.00059066748
0.004282366 0.0019293546 0.00059053075
0.0063186763 0.001645779 0.00059068773
0.0048264726 0.0064172233 0.00059084577
0.0047988892 0.0029450909 0.00059052557
0.0067555672 0.0064471965 0.00035254526
0.0023516279 0.0031751131 0.00059052301
0.0015380755 0.0053121792 -2.1343588e-07
0.0035604094 0.0062291501 -1.5065304e-08
0.0041714744 0.0061777742 0.00059057923
0.0029944144 0.0039761551 -5.0201066e-07
0.0021905599 0.0068993885 0.00059061171
0.0031645182 0.0030913001 -2.3833802e-07
0.0031360993 0.00059716922 -4.083868e-07
0.0025812762 0.0039214897 -7.6589366e-08
0.0070058643 0.0053734975 -1.1690391e-07
0.0032990563 0.0064197597 0.00059056876
0.005252358 0.0044091465 -5.3477987e-07
0.0072070598 0.0056633614 0.00058191351
0.0007495273 0.0027110579 0.00059080397
0.0040336503 0.0013656068 2.6854703e-08
0.0026637928 0.0034486102 -6.5196993e-08
0.0068352125 0.0031095278 0.00059051585
0.0070965122 0.0048248027 0.00059063826
0.0045981775 0.001524705 0.0005905322
0.0041568894 0.0010712473 3.0614409e-08
0.0031495574 0.0073730084 3.7643265e-08
0.0061454563 0.0057598818 0.00059059262
0.0038863549 0.0050154305 -7.2539922e-07
0.0067251599 0.0058286362 0.00059066515
0.0062149251 0.0069346246 6.1023264e-05
0.0051280456 0.0056436998 0.00059071527
0.0052502528 0.0051884297 0.00059070875
0.0054669427 0.0011919934 0.0005905655
0.0071087233 0.0059554842 0.00027813111
